3 2 2 2 2 1 1 0 0 0 0 0 0 0 0 0 0 0 0 0 0 0 0 0 0 0 0 0 0 0 0 0 0 0 0 0 0 0 -2 -4 -4 -3 -2 -2 -1 -1 -1 0 0 0 0 0 0 0 0 -5 -12 -11 -8 -10 -9 -8 -8 -6 -4 -2 0 -1 -2 -1 0 0 0 -2 -2 -1 -1 -1 0 0 0 0 0 0 0 0 0 0 0 0 0 0 0 0 0 0 0 0 0 0 0 -1 -2 -3 -4 -3 2 3 4 4 4 5 5 5 6 6 6 7 7 7 8 8 8 9 11 12 14 16 19 21 24 28 28 27 27 27 28 30 32 34 34 33 32 30 27 23 20 17 13 9 4 0 0 0 0 0 0 0 -7 -12 -12 -12 -13 -13 -14 -15 -16 -16 -17 -17 -17 -16 -16 -15 -15 -15 -15 -15 -15 -15 -15 -13 -9 -14 -14 -8 -14 -14 -8 -13 -14 -13 -12 -14 -15 -14 -14 -14 -13 -14 -13 -11 0 1 1 1 2 2 4 4 5 7 8 10 12 13 14 15 17 19 20 22 24 27 29 30 30 30 30 30 30 30 30 30 30 30 30 30 30 30 30 30 15 17 20 24 25 26 26 27 27 28 27 27 26 25 25 24 24 24 23 23 23 22 21 21 20 20 19 18 18 17 16 16 15 15 15 15 15 14 13 13 13 13 13 13 13 13 13 12 12 12 12 12 12 12 12 12 12 12 12 12 12 12 12 12 12 12 12 12 12 12 11 11 10 8 6 6 5 5 5 5 5 5 5 5 5 4 4 4 4 4 4 4 4 3 3 3 2 2 2 2 2 1 1 0 0 0 0 0 0 0 0 0 0 0 0 0 0 0 0 0 0 0 0 0 0 0 0 0 0 0 0 0 0 0 0 0 0 0 -1 0 0 0 0 0 0 0 0 0 0 0 0 0 0 0 0 0 0 0 0 0 0 0 0 0 0 0 0 0 -1 0 0 0 0 0 0 0 0 0 0 0 0 0 0 0 0 0 -1 0 -1 0 0 -2 -4 -6 -1 -6 -4 -4 -3 -5 -7 -11 -3 -1 -1 -1 -3 -1 -1 0 -1 0 -1 -10 -10 -9 -8 -7 -7 -6 -1 -5 -4 -3 -1 0 0
2 2 2 2 1 1 1 0 0 0 0 0 0 0 0 0 0 0 0 1 1 1 1 0 0 0 0 0 0 0 0 0 0 0 0 0 0 0 -1 -2 -2 -2 -1 -1 -1 0 0 0 0 0 0 0 0 0 0 0 -1 -7 -8 -9 -8 -8 -6 -5 -1 -1 -1 -1 -2 -2 -2 -2 -3 -5 -5 -3 -2 -1 -1 0 0 0 0 0 0 0 0 0 0 0 0 0 0 0 0 0 0 0 0 0 0 -1 -1 -1 -2 4 4 5 5 5 5 6 7 8 8 9 9 9 10 11 11 12 12 14 16 18 20 22 24 27 30 33 32 30 30 29 29 30 34 36 36 34 33 32 31 29 25 21 17 13 6 1 0 0 0 0 0 0 0 -11 -13 -13 -13 -13 -14 -15 -18 -17 -17 -17 -17 -17 -16 -15 -15 -15 -15 -16 -16 -15 -15 -15 -14 -14 -14 -14 -14 -7 -13 -13 -14 -14 -14 -16 -14 -14 -14 -14 -14 -13 -10 0 0 1 2 2 3 4 5 6 7 9 10 12 13 15 16 18 20 22 23 24 27 29 30 30 30 30 30 30 30 30 30 30 30 30 30 30 30 30 30 30 15 18 20 24 24 25 25 26 26 27 26 26 25 24 24 23 23 23 23 22 22 21 20 20 19 19 18 18 17 16 16 16 15 15 15 15 15 13 12 12 12 12 12 12 12 12 12 12 12 12 11 11 11 11 11 11 12 12 12 12 12 12 11 11 11 11 11 11 11 11 11 10 10 7 6 5 5 5 5 5 5 5 4 4 4 4 4 4 4 4 4 3 3 3 3 2 2 2 2 2 1 1 0 0 0 0 0 0 0 0 0 0 0 0 0 0 0 0 0 0 0 0 0 0 0 0 0 0 0 0 0 0 0 0 0 0 0 0 0 -1 -4 -4 0 0 0 0 0 0 0 0 0 0 0 0 0 0 0 0 0 0 0 0 0 0 0 0 0 0 -1 0 0 0 0 0 -1 -1 0 0 -1 -3 -1 -5 -6 -5 -4 -6 -9 -9 -8 -8 -1 -6 -4 -1 0 0 -1 -2 -1 0 0 -2 -1 -1 -1 0 -1 -1 -1 -1 -1 -1 -2 -10 -10 -10 -10 -1 -6 -7 -6 -4 -4 -4 -1 0 0
2 2 2 1 1 0 0 0 0 0 0 0 0 0 0 0 0 0 1 1 1 1 1 1 0 0 0 1 1 1 1 1 0 0 0 0 0 0 0 0 -1 -1 -1 0 0 0 0 0 0 0 0 0 0 0 0 -2 -5 -9 -8 -8 -8 -9 -10 -5 -4 -2 -3 -4 -4 -6 -6 -5 -6 -8 -8 -4 -2 -1 -1 0 0 0 0 0 0 0 0 0 0 0 0 0 0 0 0 0 0 0 0 0 0 0 0 -1 6 6 6 7 7 8 8 9 9 10 11 11 12 12 13 14 15 16 17 19 21 23 25 27 29 33 37 39 37 35 32 30 30 30 36 37 37 35 34 33 32 31 30 26 21 14 7 3 0 0 0 0 0 0 -6 -10 -12 -13 -13 -14 -15 -16 -16 -17 -17 -17 -17 -17 -16 -15 -15 -15 -15 -15 -15 -15 -15 -15 -9 -8 -8 -8 -14 -7 -13 -13 -14 -14 -14 -14 -14 -14 -15 -14 -13 -8 -4 -4 -2 2 2 3 4 5 6 7 9 10 11 13 15 17 19 21 23 24 26 27 28 30 30 30 30 30 30 30 30 30 30 30 30 30 30 30 30 30 30 30 16 18 20 23 23 24 24 25 25 26 25 24 23 23 23 23 22 22 22 21 21 20 20 19 19 18 17 17 16 16 16 15 15 15 15 15 15 13 12 12 12 12 12 12 12 12 12 12 11 11 11 11 11 11 11 11 11 11 12 12 12 11 11 11 11 11 10 11 11 11 10 10 9 7 6 5 5 5 5 4 4 4 4 4 4 4 3 3 3 3 3 3 3 2 2 2 2 2 1 1 1 0 0 0 0 0 0 0 0 0 0 0 0 0 0 0 0 0 0 0 0 0 0 0 0 0 0 0 0 0 0 0 0 0 0 0 0 0 0 0 -3 -7 -6 -1 0 0 0 0 0 0 0 0 0 0 0 0 0 0 0 0 0 0 0 0 0 0 0 0 -1 -1 0 -1 0 -1 -6 -7 -6 -5 -5 -6 -6 -9 -10 -8 -8 -7 -3 -2 -1 0 0 -7 -6 -6 -1 -2 -1 -1 -1 -1 -1 -1 -1 -1 -1 -1 -1 -1 -1 -1 0 -1 0 -2 -10 -10 -10 -9 -9 -8 -7 0 -4 -6 -9 -9 -3
2 2 1 1 1 0 0 0 0 0 0 0 0 0 0 0 0 1 1 1 1 1 1 1 1 1 1 1 1 1 1 1 1 0 0 0 0 0 0 0 0 0 0 0 0 0 0 0 0 0 0 0 0 0 -1 -3 -5 -6 -7 -7 -7 -8 -10 -9 -7 -7 -9 -9 -9 -10 -10 -10 -8 -7 -5 -3 -1 -1 1 0 0 0 0 0 0 0 0 0 0 0 0 0 0 0 0 0 0 2 3 4 4 5 6 6 7 8 8 9 9 10 10 11 12 12 13 14 15 16 16 17 19 20 21 23 25 26 28 30 34 38 43 45 42 40 37 34 30 30 39 40 39 37 36 34 33 32 31 30 24 16 9 4 0 0 0 0 -5 -6 -7 -10 -12 -13 -13 -14 -15 -17 -16 -19 -17 -17 -17 -17 -16 -16 -15 -15 -15 -15 -15 -15 -15 -15 -14 -8 -14 -15 -15 -14 -7 -14 -15 -15 -14 -14 -14 -15 -16 -15 -9 -3 -3 -3 2 2 3 4 5 6 8 9 10 12 13 15 18 20 22 24 26 27 29 30 30 30 30 30 30 30 30 30 30 30 30 30 30 30 30 30 30 30 30 30 16 18 20 23 23 23 24 24 24 25 24 23 23 22 22 22 21 21 21 20 20 20 19 18 18 17 17 16 16 16 15 15 15 15 15 15 15 12 12 11 11 11 11 11 11 11 11 11 11 11 10 10 10 10 10 10 11 11 11 11 11 11 10 10 10 10 10 10 10 10 10 9 9 6 5 5 4 4 4 4 4 4 3 3 3 3 3 3 3 3 3 2 2 2 2 2 1 1 1 1 0 0 0 0 0 0 0 0 0 0 0 0 0 0 0 0 0 0 0 0 0 0 0 0 0 0 0 0 0 0 0 0 0 0 0 0 0 0 0 0 0 0 -8 -6 0 0 0 0 0 0 0 0 0 0 0 0 0 0 0 0 0 0 0 0 0 0 -2 -7 -2 0 0 -7 -6 -8 -12 -13 -11 -2 -8 -9 -8 -8 -2 0 0 -2 -1 0 0 0 0 -2 -6 -7 -7 -7 -2 -2 -3 -2 -1 -1 -1 -1 -1 -1 0 -1 -1 -1 0 -1 -1 -6 -11 -11 -11 -9 -1 -8 -9 -9 -9 -3 -8 -9 -2
2 1 1 1 0 0 0 0 0 0 0 0 0 0 0 0 1 1 1 1 1 2 2 1 1 1 1 1 2 2 2 1 1 1 1 1 1 1 1 1 0 0 0 0 0 0 0 0 0 0 0 0 0 0 -1 -2 -4 -4 -5 -5 -5 -6 -8 -8 -10 -11 -10 -9 -8 -8 -8 -7 -6 -4 1 1 1 1 2 2 2 2 2 1 1 0 0 0 0 0 0 0 0 0 0 0 3 4 5 6 6 7 8 8 9 10 10 11 12 12 12 13 14 15 16 17 18 19 20 20 22 23 24 27 28 30 32 36 40 44 50 50 46 44 41 38 37 42 43 43 41 39 37 35 34 32 31 30 25 17 9 4 0 0 0 0 -5 -6 -6 -12 -12 -12 -13 -14 -15 -17 -17 -17 -17 -17 -17 -16 -16 -16 -15 -15 -15 -15 -15 -15 -15 -15 -15 -15 -15 -15 -15 -16 -14 -14 -15 -14 -13 -14 -14 -15 -14 -10 -4 -3 -3 1 2 2 4 5 6 7 9 10 11 12 14 16 20 22 25 28 30 30 30 30 30 30 30 30 30 30 30 30 30 30 30 30 30 30 30 30 30 30 30 30 16 18 20 23 22 22 23 23 24 24 23 23 22 21 21 21 20 20 20 20 19 19 18 18 17 16 16 16 16 15 15 15 15 15 15 15 13 12 11 11 11 11 11 11 11 11 11 11 10 10 10 10 10 10 10 10 10 10 11 11 11 10 10 10 10 10 10 10 10 10 9 9 9 6 5 4 4 4 4 3 3 3 3 3 3 3 3 2 2 2 2 2 2 2 2 1 1 1 0 0 0 0 0 0 0 0 0 0 0 0 0 0 0 0 0 0 0 0 0 0 0 0 0 0 0 0 0 0 0 0 0 0 0 0 0 0 0 0 0 0 0 0 0 -7 -4 0 0 0 0 0 0 0 0 0 0 0 0 0 0 0 0 -1 0 0 -2 -7 -6 -2 -5 -1 -1 -12 -3 -10 -10 -9 -8 -4 -1 -3 -4 -4 -1 0 0 -1 0 0 0 0 0 0 -6 -4 -7 -7 -3 -1 -1 -2 -1 -1 -2 -2 -2 -1 -1 -1 0 0 0 0 -2 -8 -9 -1 -10 -10 -10 -9 -9 -8 -3 -3 -7 -9 -7
1 1 1 1 0 0 0 0 0 0 0 0 0 0 0 1 1 1 1 2 2 2 2 2 2 1 2 2 2 2 2 2 2 2 1 1 1 2 2 1 1 0 0 0 0 0 0 0 0 0 0 0 0 0 -1 -1 -2 -3 -3 -2 -3 -4 -4 -4 -6 -6 -5 -4 -4 -4 -4 -3 -3 2 2 2 2 2 3 3 3 3 3 3 2 2 1 1 2 3 3 2 2 3 2 3 5 5 6 7 8 9 10 10 11 12 12 13 14 14 15 16 16 17 19 20 20 21 22 23 24 25 27 29 30 33 37 41 45 50 56 54 51 49 47 45 44 47 46 46 44 41 38 36 34 32 31 28 24 17 9 5 0 0 0 0 -9 -10 -10 -10 -12 -13 -13 -14 -15 -16 -17 -16 -17 -19 -17 -16 -16 -16 -16 -15 -15 -15 -15 -15 -15 -9 -15 -15 -15 -9 -14 -15 -8 -9 -14 -14 -13 -14 -15 -16 -11 -6 -4 -2 1 1 2 4 5 6 7 8 9 11 12 13 15 17 21 24 27 30 30 30 30 30 30 30 30 30 30 30 30 30 30 30 30 30 30 30 30 30 30 30 30 30 16 18 20 22 22 22 22 23 23 23 23 22 21 20 20 20 20 19 19 19 18 18 17 17 17 16 16 16 15 15 15 15 15 15 15 14 12 12 11 11 11 11 11 11 11 11 11 10 10 10 9 9 9 9 9 9 10 10 10 10 10 10 9 9 9 9 9 9 9 9 9 8 8 5 4 4 3 3 3 3 3 3 2 2 2 2 2 2 2 2 2 2 2 1 1 1 0 0 0 0 0 0 0 0 0 0 0 0 0 0 0 0 0 0 0 0 0 0 0 0 0 0 0 0 0 0 0 0 0 0 0 0 0 0 0 0 0 0 0 0 0 0 0 0 -6 -5 0 0 0 0 0 0 0 0 0 0 0 0 0 0 0 0 0 -3 -7 -7 -2 -1 -2 -2 -2 -5 -1 -1 -3 -5 -4 -2 0 0 -1 -1 -1 0 0 0 0 0 0 0 0 0 0 0 -1 -2 -6 -3 -1 -2 -2 -3 -2 -1 -1 -1 0 0 0 0 0 0 0 -1 -10 -9 -9 -11 -11 -9 -8 -9 -9 -6 -5 -2 -9
1 1 0 0 0 0 0 0 0 0 0 0 0 0 1 1 1 1 2 2 2 2 2 2 2 2 2 2 2 3 2 2 2 2 2 2 2 2 2 2 2 1 1 1 0 0 0 0 0 0 0 0 0 0 0 -1 -1 -1 0 0 -1 -2 0 0 -2 0 0 0 1 2 2 2 2 2 2 3 3 4 4 4 4 4 4 4 4 3 3 3 4 5 5 4 4 5 5 5 7 8 8 9 10 11 12 13 13 14 15 16 16 16 17 18 19 20 21 22 23 23 24 25 26 27 29 30 34 35 40 45 49 54 61 59 56 55 53 52 51 50 51 52 48 42 39 36 33 31 30 26 22 16 9 5 0 0 0 0 -9 -10 -10 -12 -12 -12 -13 -14 -15 -17 -17 -16 -16 -17 -17 -16 -16 -15 -15 -15 -15 -15 -14 -15 -15 -10 -8 -8 -14 -16 -15 -16 -15 -15 -14 -14 -13 -14 -15 -13 -9 -5 -3 1 1 2 3 4 6 7 8 9 10 11 12 14 16 19 21 23 27 30 30 30 30 30 30 30 30 30 30 30 30 30 30 30 30 30 30 30 29 29 29 29 29 29 16 18 19 21 21 21 21 22 22 22 22 21 20 20 19 19 19 18 18 18 17 17 16 16 16 16 15 15 15 15 15 15 14 14 14 14 12 11 10 10 10 10 10 10 10 10 10 10 10 9 9 9 9 9 9 9 9 9 10 10 10 9 9 9 9 9 9 9 9 9 9 8 8 5 4 3 3 3 3 2 2 2 2 2 2 2 2 2 2 2 2 1 1 1 1 0 0 0 0 0 0 0 0 0 0 0 0 0 0 0 0 0 0 0 0 0 0 0 0 0 0 0 0 0 0 0 0 0 0 0 0 0 0 0 0 0 0 0 0 0 0 0 0 0 0 -6 -5 -2 0 0 0 0 0 0 0 0 0 0 0 0 0 -2 -7 -7 -3 -1 -2 -2 -1 0 -1 -2 -1 0 0 -2 -2 -1 0 0 0 0 0 0 0 0 0 0 0 0 0 0 0 0 0 0 -3 -5 -6 -2 -3 -2 -1 -1 -1 0 0 0 0 0 0 0 0 -1 -6 -9 -2 -11 -10 -9 -9 -8 -1 -7 -6 -5 -6
1 1 0 0 0 0 0 0 0 0 0 0 0 0 1 1 1 1 2 2 2 2 2 2 2 2 2 2 3 3 3 3 2 2 2 2 2 3 2 2 2 2 1 1 1 1 0 0 0 0 0 0 0 0 0 0 0 0 0 0 0 -1 1 1 1 1 1 1 2 2 3 3 3 3 4 4 5 5 5 5 5 5 6 5 5 5 4 4 5 6 6 5 5 6 7 8 9 10 10 11 12 13 14 15 16 16 17 17 18 19 19 20 21 22 23 23 24 25 26 27 27 29 30 30 36 39 43 48 52 56 61 61 60 59 59 58 57 57 58 61 54 44 39 35 31 31 30 25 21 15 9 5 0 0 0 0 -7 -8 -8 -9 -11 -13 -13 -14 -15 -17 -17 -16 -16 -17 -17 -16 -16 -15 -15 -15 -15 -15 -15 -15 -15 -15 -14 -14 -7 -15 -15 -15 -9 -15 -14 -14 -14 -13 -11 -8 -5 -4 -2 1 2 2 3 5 6 7 9 9 10 12 12 14 15 18 20 22 24 27 29 30 30 30 30 30 30 30 30 30 30 30 30 30 29 29 29 29 28 28 28 28 28 28 16 17 19 21 21 20 21 21 21 21 21 20 19 19 18 18 18 17 17 17 16 16 16 16 15 15 15 15 15 15 15 14 14 14 14 13 12 11 10 10 10 10 10 10 10 10 10 10 9 9 9 9 9 9 9 9 9 9 9 9 9 9 9 9 9 9 8 8 8 8 8 7 7 5 3 3 2 2 2 2 2 2 2 2 2 1 1 1 1 1 1 1 1 0 0 0 0 0 0 0 0 0 0 0 0 0 0 0 0 0 0 0 0 0 0 0 0 0 0 0 0 0 0 0 0 0 0 0 0 0 0 0 0 0 0 0 0 0 0 0 0 0 0 0 0 0 -6 -2 -2 0 0 0 0 0 0 0 0 0 0 0 -3 -8 -7 -1 -2 -2 -2 -1 0 0 0 -1 0 0 0 0 -1 -1 0 0 0 0 0 0 0 0 0 0 0 0 0 0 0 0 0 -1 -2 -3 -5 -4 -1 0 0 0 0 0 0 0 0 0 0 0 0 0 -1 -5 -6 -11 -10 -10 -11 -10 -8 -6 -8 -5 -7
0 0 0 0 0 0 0 0 0 0 0 0 0 1 1 1 2 2 2 2 2 2 2 2 3 3 3 3 3 3 3 3 3 3 3 3 3 3 3 3 2 2 2 2 2 1 1 1 0 0 0 0 0 0 0 0 0 0 0 0 1 1 2 2 2 2 2 2 3 4 4 4 4 5 5 5 5 6 6 6 6 7 7 7 7 6 6 6 7 8 8 7 7 8 9 10 11 12 12 13 14 15 16 17 18 18 19 20 20 21 22 22 23 24 25 25 26 27 27 28 28 29 30 30 39 43 47 50 54 57 61 61 61 61 61 60 60 60 59 59 57 45 38 33 30 30 29 25 21 15 8 4 0 0 0 0 -7 -8 -8 -9 -11 -13 -13 -14 -15 -16 -17 -17 -16 -16 -16 -16 -17 -15 -15 -15 -15 -15 -15 -15 -14 -15 -15 -15 -14 -15 -15 -15 -11 -14 -14 -13 -14 -14 -10 -7 -5 -3 -2 1 2 2 3 5 6 8 9 9 11 12 12 13 14 15 17 19 22 24 26 27 29 30 30 30 30 30 30 30 30 30 30 29 28 28 28 28 27 27 27 27 27 27 16 17 19 21 21 20 20 20 20 20 20 19 19 18 17 17 17 16 16 16 16 15 15 15 15 15 15 15 15 15 15 14 14 13 13 13 11 10 9 9 9 9 9 9 9 9 9 9 9 9 8 8 8 8 8 8 9 9 9 9 9 9 8 8 8 8 8 8 8 8 8 7 7 4 3 2 2 2 2 2 2 2 1 1 1 1 1 1 1 1 1 0 0 0 0 0 0 0 0 0 0 0 0 0 0 0 0 0 0 0 0 0 0 0 0 0 0 0 0 0 0 0 0 0 0 0 0 0 0 0 0 0 0 0 0 0 0 0 0 0 0 0 0 0 0 0 0 -3 -3 -1 0 0 0 0 0 0 0 0 -1 -5 -6 -6 -1 -2 -2 -1 -1 0 0 0 0 0 0 0 0 0 0 0 0 0 0 0 0 0 0 0 0 0 0 0 0 0 0 0 0 0 -1 0 -1 -5 -1 0 0 0 0 0 0 0 0 0 0 0 0 0 -1 -5 -11 -12 -8 -8 -11 -8 -10 -5 -7 -8 -9
0 0 0 0 0 0 0 0 0 0 0 0 0 1 1 2 2 2 2 2 2 3 3 3 3 3 3 3 3 4 4 4 4 3 3 3 4 4 4 4 3 3 2 2 2 2 2 1 1 1 1 1 1 1 1 1 1 1 1 1 2 2 2 3 3 2 3 3 4 5 5 5 5 5 6 6 7 7 8 8 8 8 8 8 8 8 7 8 9 9 9 9 9 10 11 12 13 14 14 15 16 17 18 19 20 20 21 22 22 23 23 24 25 26 27 27 28 29 29 29 29 30 30 35 43 47 51 54 56 59 60 61 61 61 61 61 60 60 59 55 47 41 33 31 31 30 28 24 19 12 8 4 0 0 0 0 -6 -7 -6 -8 -12 -13 -14 -14 -15 -17 -16 -16 -16 -16 -16 -16 -16 -15 -15 -15 -15 -15 -15 -15 -15 -15 -15 -15 -15 -14 -15 -16 -14 -14 -14 -13 -14 -13 -8 -5 -4 -2 1 2 2 2 4 5 7 8 9 9 10 11 12 13 14 15 15 16 20 22 24 25 27 29 30 30 30 30 30 30 30 29 28 27 27 27 27 27 27 27 27 26 26 26 16 17 19 20 20 20 19 19 20 20 19 19 18 17 17 16 16 16 16 15 15 15 15 15 15 15 15 15 15 15 15 14 13 13 13 12 11 10 9 9 9 9 9 9 9 9 9 9 8 8 8 8 8 8 8 8 8 8 9 9 9 8 8 8 8 8 7 7 7 7 7 6 6 4 2 2 2 1 1 1 1 1 1 1 1 1 0 0 0 0 0 0 0 0 0 0 0 0 0 0 0 0 0 0 0 0 0 0 0 0 0 0 0 0 0 0 0 0 0 0 0 0 0 0 0 0 0 0 0 0 0 0 0 0 0 0 0 0 0 0 0 0 0 0 0 0 0 0 -1 -4 -1 0 0 0 0 0 -1 -4 -1 -1 -7 -3 -2 -2 0 0 0 0 0 0 0 0 0 0 0 0 0 0 0 0 0 0 0 0 0 0 0 0 0 0 0 0 0 0 0 0 0 0 0 -4 -2 -1 0 0 0 0 0 0 0 0 0 0 0 0 -1 -3 -9 -10 -10 -10 -11 -8 -9 -6 -11 -10 -1
0 0 0 0 0 0 0 0 0 0 0 0 1 1 1 2 2 2 2 3 3 3 3 3 3 4 4 4 4 4 4 4 4 4 4 4 4 5 4 4 4 3 3 2 2 2 2 2 2 2 1 1 2 2 2 2 2 2 2 2 2 3 3 4 4 3 4 4 5 5 6 6 6 7 7 7 8 8 9 9 9 9 9 9 9 9 9 9 10 11 11 11 12 12 13 14 15 16 16 17 18 19 20 21 22 23 23 24 25 25 26 27 27 27 28 29 29 30 30 30 30 30 36 43 48 52 55 57 59 60 61 61 61 61 61 61 60 59 58 54 44 38 35 30 30 30 28 25 19 12 8 4 0 0 0 0 -6 -7 -7 -6 -12 -13 -14 -15 -16 -17 -16 -16 -16 -16 -16 -16 -15 -15 -15 -15 -15 -15 -14 -15 -15 -13 -15 -15 -14 -9 -15 -15 -14 -14 -13 -13 -14 -11 -7 -5 -3 -2 1 2 2 3 4 5 7 8 9 9 10 11 12 12 13 14 14 15 16 19 21 22 25 27 29 29 30 30 29 29 28 28 27 27 26 26 26 26 26 26 26 25 25 25 16 17 19 20 20 19 19 19 19 19 18 18 17 17 16 16 16 15 15 15 15 15 15 15 15 15 15 15 15 15 15 14 13 12 12 12 10 9 9 8 8 8 8 8 8 8 8 8 8 8 7 7 7 7 7 7 8 8 8 8 8 8 7 7 7 7 7 7 7 7 7 6 6 3 2 2 1 1 1 1 1 1 0 0 0 0 0 0 0 0 0 0 0 0 0 0 0 0 0 0 0 0 0 0 0 0 0 0 0 0 0 0 0 0 0 0 0 0 0 0 0 0 0 0 0 0 0 0 0 0 0 0 0 0 0 0 0 0 0 0 0 0 0 0 0 0 0 0 0 -3 -6 0 0 0 -1 -1 -5 -7 -5 -1 -1 -2 -2 -1 0 0 0 0 0 0 0 0 0 0 0 0 0 0 0 0 0 0 0 0 0 0 0 0 0 0 0 -1 0 0 0 0 0 0 0 0 -6 -1 0 0 0 0 0 0 0 0 0 0 0 0 0 -1 -11 -11 -11 -12 -10 -10 -11 -9 -5 -8 -10
0 0 0 0 0 0 0 0 0 0 0 0 1 1 1 2 2 2 2 3 3 3 3 4 4 4 4 4 4 5 5 5 5 5 5 5 5 5 5 5 4 4 4 3 3 3 3 2 2 2 2 2 2 2 2 3 3 3 3 3 3 4 4 5 5 4 5 5 6 6 7 7 7 8 8 9 9 9 9 9 10 10 10 10 11 11 11 11 12 13 13 13 13 14 15 16 17 18 19 19 20 21 22 23 24 25 25 26 27 28 28 29 30 30 30 31 32 34 34 35 36 38 42 48 53 56 58 59 60 61 61 61 61 61 61 60 59 58 56 52 44 38 35 33 31 30 30 27 20 13 9 4 0 0 0 0 -5 -6 -5 -5 -11 -13 -14 -15 -16 -17 -16 -16 -16 -16 -16 -16 -15 -15 -15 -15 -15 -15 -15 -14 -15 -15 -15 -15 -15 -14 -15 -15 -14 -14 -13 -14 -13 -8 -6 -4 -2 1 2 2 3 3 4 5 7 8 8 9 10 11 11 12 13 14 14 15 15 15 17 19 23 26 27 28 28 27 27 27 27 26 26 25 25 25 25 25 25 25 25 24 24 24 16 18 19 20 19 19 18 18 18 18 17 17 16 16 16 15 15 15 15 15 15 15 15 15 15 15 15 15 15 15 15 14 13 12 12 12 10 9 8 8 8 8 8 8 8 8 8 8 8 7 7 7 7 7 7 7 7 7 7 8 8 7 7 7 7 7 7 7 7 7 6 6 5 3 2 2 1 0 0 0 0 0 0 0 0 0 0 0 0 0 0 0 0 0 0 0 0 0 0 0 0 0 0 0 0 0 0 0 0 0 0 0 0 0 0 0 0 0 0 0 0 0 0 0 0 0 0 0 0 0 0 0 0 0 0 0 0 0 0 0 0 0 0 0 0 0 0 0 0 0 -5 -3 -1 -1 -2 -5 -3 -6 -2 -1 -2 -2 -1 -1 0 0 0 0 0 0 0 0 0 0 0 0 0 0 0 0 0 0 0 0 0 0 0 0 0 0 0 -1 0 0 0 0 0 0 0 0 -5 -1 0 0 0 0 0 0 0 0 0 0 0 0 0 0 -7 -12 -11 -11 -10 -10 -10 -10 -5 -7 -4
0 0 0 0 0 0 0 0 0 0 0 0 1 1 1 2 2 2 2 3 3 4 4 4 4 5 5 5 5 5 5 5 5 5 5 5 5 5 5 5 5 4 4 4 4 3 3 3 3 3 3 3 3 3 3 3 3 4 4 4 4 5 5 5 5 5 6 7 7 8 8 8 8 9 9 10 9 10 11 11 11 12 12 12 12 12 12 13 14 15 15 15 16 16 17 18 19 20 21 21 22 23 24 25 26 27 28 29 29 29 30 30 31 33 34 34 37 38 39 40 41 45 49 52 57 61 61 61 61 61 61 61 61 61 61 60 59 57 55 50 44 39 36 34 32 31 30 28 20 13 9 4 0 0 0 0 0 -7 -6 -7 -12 -14 -15 -16 -17 -17 -16 -16 -16 -16 -16 -16 -15 -15 -15 -15 -14 -15 -15 -15 -14 -15 -15 -15 -15 -9 -15 -14 -14 -14 -14 -14 -12 -7 -5 -3 -2 2 2 2 3 3 5 6 6 7 8 9 9 10 11 12 12 13 14 14 15 15 15 16 23 25 26 26 27 26 26 26 25 25 24 24 24 24 24 24 24 24 23 23 24 24 16 19 22 20 19 18 18 17 17 17 16 16 16 15 15 15 15 15 15 15 15 15 15 15 15 15 15 15 15 15 15 14 12 12 12 11 9 8 8 7 7 7 7 7 7 7 7 7 7 7 6 6 6 6 6 6 7 7 7 7 7 7 6 6 6 6 6 6 6 6 6 5 5 3 2 2 1 0 0 0 0 0 0 0 0 0 0 0 0 0 0 0 0 0 0 0 0 0 0 0 0 0 0 0 0 0 0 0 0 0 0 0 0 0 0 0 0 0 0 0 0 0 0 0 0 0 0 0 0 0 0 0 0 0 0 0 0 0 0 0 0 0 0 0 0 0 0 0 0 0 -1 -3 -5 -5 -5 -6 -6 -5 -2 -1 -2 -1 -1 -1 -1 0 0 0 0 0 0 0 0 0 0 0 0 0 0 0 0 0 0 0 0 0 0 0 0 0 0 0 0 0 0 0 0 0 0 -1 -5 -3 0 0 0 0 0 0 0 0 0 0 0 0 0 0 0 -11 -10 -11 -10 -10 -13 -13 -11 -7 -6
0 0 0 0 0 0 0 0 0 0 0 0 1 1 1 2 2 2 2 3 3 4 4 5 5 5 5 5 5 5 5 5 6 5 5 6 6 6 6 5 5 5 5 4 4 4 4 4 4 3 3 3 4 4 4 4 4 5 5 5 5 5 6 6 6 6 7 8 8 8 8 9 9 9 10 10 11 11 12 12 12 13 13 13 14 14 14 15 16 16 17 17 18 19 20 20 21 22 23 23 24 25 26 27 28 29 29 30 31 32 33 33 35 36 38 39 41 42 43 45 47 50 54 57 61 62 62 62 62 62 62 62 61 61 61 60 58 56 53 50 44 40 37 34 31 30 29 25 19 13 9 4 0 0 0 0 -5 -5 -7 -8 -12 -14 -15 -16 -17 -17 -16 -16 -15 -15 -16 -15 -15 -15 -15 -15 -15 -15 -15 -15 -15 -14 -14 -11 -10 -14 -15 -14 -13 -13 -14 -13 -10 -7 -5 -3 -2 2 2 3 3 4 5 5 6 7 8 8 9 10 10 11 12 13 13 14 14 15 15 15 22 24 24 25 25 24 24 24 24 23 23 23 23 23 23 23 23 23 23 23 23 23 16 19 25 20 19 18 17 17 16 16 16 16 15 15 15 15 15 15 15 15 15 15 15 15 15 15 15 15 15 15 15 14 12 12 11 11 9 8 7 7 7 7 7 7 7 7 7 7 7 6 6 6 6 6 6 6 6 6 6 7 7 6 6 6 6 6 6 6 6 6 5 5 5 3 2 2 1 0 0 0 0 0 0 0 0 0 0 0 0 0 0 0 0 0 0 0 0 0 0 0 0 0 0 0 0 0 0 0 0 0 0 0 0 0 0 0 0 0 0 0 0 0 0 0 0 0 0 0 0 0 0 0 0 0 0 0 0 0 0 0 0 0 0 0 0 0 0 0 0 0 -1 -5 -7 -6 -5 -2 -1 -1 -1 -1 -2 -1 -1 -1 0 0 0 0 0 0 0 0 0 0 0 0 0 0 0 0 0 0 0 0 0 0 0 0 0 0 0 0 0 0 0 0 0 0 0 -4 -2 -1 0 0 0 0 0 0 0 0 0 0 0 0 0 0 0 -8 -9 -11 -11 -10 -13 -12 -12 -7 -7
0 0 0 0 0 0 0 0 0 0 0 0 1 1 2 2 2 2 3 3 3 4 4 5 5 5 5 5 6 6 6 6 6 6 6 6 6 6 6 6 6 5 5 5 5 5 4 4 4 4 4 4 5 5 5 5 5 5 5 5 6 6 7 7 7 7 8 9 9 9 9 10 10 10 11 12 12 12 13 13 14 14 15 15 15 16 16 17 17 18 19 19 20 21 22 22 23 24 24 25 26 27 27 28 29 30 30 32 33 35 36 37 39 40 41 43 45 46 48 50 52 55 58 61 62 63 64 64 64 64 64 63 62 62 62 61 61 58 53 47 43 39 35 31 30 30 28 24 18 12 9 4 0 0 0 0 -6 -7 -6 -8 -12 -14 -15 -16 -17 -17 -17 -16 -15 -15 -15 -15 -15 -15 -15 -15 -15 -15 -15 -15 -15 -14 -15 -15 -15 -15 -14 -13 -13 -13 -14 -13 -9 -5 -4 -2 -2 2 2 3 3 4 5 6 6 7 8 8 9 9 10 11 12 12 13 14 14 15 15 20 21 23 23 23 23 23 23 23 23 22 22 22 22 22 22 22 22 22 22 22 22 22 16 18 19 19 18 17 17 16 16 16 16 15 15 15 15 15 15 15 15 15 15 15 15 15 15 15 15 15 15 15 15 13 12 11 11 10 9 8 7 6 6 6 6 6 6 6 6 6 6 6 5 5 5 5 5 5 6 6 6 6 6 6 5 5 5 5 5 5 5 5 5 4 4 3 2 2 1 0 0 0 0 0 0 0 0 0 0 0 0 0 0 0 0 0 0 0 0 0 0 0 0 0 0 0 0 0 0 0 0 0 0 0 0 0 0 0 0 0 0 0 0 0 0 0 0 0 0 0 0 0 0 0 0 0 0 0 0 0 0 0 0 0 0 0 0 0 -1 0 -1 -5 -6 -7 -5 -1 -1 -1 -1 0 -1 -1 -2 -1 -1 0 0 0 0 0 0 0 0 0 0 0 0 0 0 0 0 0 0 0 0 0 0 0 0 0 -1 0 0 0 0 0 0 0 0 0 0 -6 -2 -4 -2 0 0 0 0 0 0 0 0 0 0 0 0 0 0 -2 -1 -11 -10 -4 -10 -10 -1 -8 -12
0 0 0 0 0 0 0 0 0 0 0 0 1 1 2 2 2 2 3 3 3 4 5 5 5 5 6 6 6 6 6 6 7 7 7 7 7 7 7 7 6 6 6 5 5 5 5 5 5 5 5 5 5 5 5 6 6 6 6 6 7 7 8 8 8 8 9 9 10 10 10 11 11 12 12 12 13 14 14 15 15 16 16 16 17 17 18 18 19 20 20 21 22 23 23 24 25 25 26 27 27 28 29 30 31 32 34 35 36 38 39 41 42 44 45 47 49 50 52 54 57 60 61 62 64 65 65 66 66 65 65 64 63 62 62 62 61 61 55 48 41 37 33 30 30 28 26 23 17 12 8 4 0 0 0 0 -5 -7 -8 -8 -12 -14 -15 -16 -17 -17 -17 -16 -15 -15 -15 -15 -15 -15 -15 -15 -15 -15 -15 -15 -15 -13 -13 -15 -15 -15 -13 -13 -13 -13 -14 -11 -9 -5 -5 -2 2 2 3 3 4 4 5 6 6 7 8 8 9 9 10 11 12 12 13 14 14 15 15 19 20 21 21 22 22 21 21 21 21 21 21 21 21 21 21 21 21 21 21 21 21 21 16 17 19 18 18 17 16 16 16 15 15 15 15 15 15 15 15 15 15 15 15 15 15 15 15 15 15 15 15 15 14 12 11 11 10 10 8 7 7 6 6 6 6 6 6 6 6 6 6 5 5 5 5 5 5 5 5 5 5 6 6 5 5 5 5 5 5 5 5 5 5 4 4 3 2 2 1 0 0 0 0 0 0 0 0 0 0 0 0 0 0 0 0 0 0 0 0 0 0 0 0 -5 -4 0 0 0 0 0 0 0 0 0 0 0 0 0 0 0 0 0 0 0 0 0 0 0 0 0 0 0 0 0 0 0 0 0 0 0 0 0 0 0 0 0 -1 0 0 -1 -5 -7 -7 -6 -1 0 0 0 0 0 -1 -2 -2 -1 -1 0 0 0 0 0 0 0 0 0 0 0 0 0 0 0 0 0 0 0 0 0 0 0 -1 -1 -1 -1 0 0 0 0 0 0 0 0 0 -3 -1 -1 0 0 0 0 0 0 0 0 0 0 0 0 0 0 0 0 0 -3 -1 0 0 -5 -1 -7 -9
0 0 0 0 0 0 0 0 0 0 0 1 1 2 2 2 2 3 3 3 4 4 5 5 5 5 6 6 6 7 7 7 7 7 7 7 7 8 8 7 7 7 6 6 6 6 5 5 5 5 5 5 6 6 6 6 7 7 7 7 8 8 9 9 9 9 9 10 11 11 12 12 12 12 13 14 14 15 16 16 16 17 17 18 19 19 20 20 21 21 22 23 23 24 25 25 26 27 27 28 29 29 30 32 34 35 36 38 39 41 42 44 46 48 49 51 52 54 56 58 60 61 62 63 65 66 67 67 67 66 66 65 64 63 63 62 62 61 52 44 39 34 30 30 29 27 24 19 14 11 8 4 0 0 0 0 0 -6 -8 -8 -12 -13 -15 -16 -17 -17 -17 -16 -15 -15 -15 -16 -15 -15 -15 -15 -14 -15 -15 -15 -15 -15 -15 -15 -15 -15 -14 -13 -13 -13 -13 -11 -8 -4 -3 2 2 2 3 3 4 5 5 6 7 7 8 9 9 10 10 11 12 12 13 14 14 15 15 18 19 20 20 20 20 20 20 20 20 20 20 20 20 20 20 20 20 20 20 20 20 20 16 17 19 18 17 16 16 16 15 15 15 15 15 15 15 15 15 15 15 15 15 15 15 15 15 15 15 15 15 14 14 12 11 10 10 10 8 7 6 6 6 6 6 6 5 5 5 5 5 5 5 5 5 5 5 5 5 5 5 5 5 5 5 5 5 5 4 4 4 4 4 4 3 3 2 2 1 0 0 0 0 0 0 0 0 0 0 0 0 0 0 0 0 0 0 0 0 0 0 0 0 -3 -4 -5 -4 0 0 0 0 0 0 0 0 0 0 0 0 0 0 0 0 0 0 0 0 0 0 0 0 0 0 0 0 0 0 0 0 0 0 0 0 0 -2 -5 -1 -1 -1 -6 -7 -7 -2 -1 0 0 0 0 0 0 0 -2 -2 -1 -1 0 0 0 0 0 0 0 0 0 0 0 0 0 0 0 0 0 0 0 0 0 0 -1 -1 0 0 0 0 0 0 0 0 0 0 0 -1 -2 -1 -1 0 0 0 0 0 0 0 0 0 0 0 0 0 0 0 0 0 -1 0 0 0 0 -10 -7 -8
0 0 0 0 0 0 0 0 0 0 0 1 1 2 2 2 2 3 3 3 4 4 5 5 5 5 6 6 6 7 7 7 8 8 8 8 8 8 8 8 8 7 7 7 7 6 6 6 6 6 6 6 7 7 7 7 8 8 8 8 9 9 9 10 10 10 11 11 12 12 12 13 13 13 14 15 16 16 16 17 18 18 19 19 20 21 21 22 22 23 23 24 25 26 27 27 27 28 29 30 30 31 33 35 36 37 39 41 42 44 45 47 50 51 53 55 56 58 60 61 61 62 63 65 66 68 69 69 68 67 66 66 65 64 64 62 62 61 51 42 36 30 30 29 28 26 23 18 14 10 7 4 0 0 0 0 -6 -6 -6 -9 -12 -13 -14 -16 -16 -17 -17 -16 -16 -15 -15 -15 -15 -15 -15 -15 -15 -15 -15 -15 -15 -13 -14 -13 -15 -14 -14 -13 -13 -13 -12 -9 -6 -3 1 2 2 2 3 4 4 5 5 6 7 8 8 9 9 10 10 11 12 12 13 14 14 15 15 17 17 18 18 18 18 18 18 18 18 19 19 19 19 19 19 19 19 19 19 19 19 19 16 17 19 18 16 16 15 15 15 15 15 15 15 15 15 15 15 15 15 15 15 15 15 15 15 15 15 15 14 14 13 11 10 10 9 9 7 6 6 5 5 5 5 5 5 5 5 5 5 5 5 4 4 4 4 4 5 5 5 5 5 5 4 4 4 4 4 4 4 4 4 3 3 3 2 2 1 0 0 0 0 0 0 0 0 0 0 0 0 0 0 0 0 0 0 0 0 0 0 0 0 0 0 -5 -5 -4 -4 0 0 0 0 0 0 0 0 0 0 0 0 0 0 0 0 0 0 0 0 0 0 0 0 0 0 0 0 0 0 0 0 0 0 0 -7 -11 -2 -3 -6 -7 -6 -4 -1 0 0 0 0 0 0 0 -1 -2 -2 -1 0 0 0 0 0 0 0 0 0 0 0 0 0 0 0 0 0 0 0 0 0 0 0 -2 0 0 0 0 0 0 0 0 0 0 0 0 -2 -2 0 0 0 0 0 0 0 0 0 0 0 0 0 0 0 0 0 0 -1 -1 0 0 0 0 0 -9 -9
0 0 0 0 0 0 0 0 0 0 1 1 1 2 2 2 2 3 3 3 4 4 5 5 5 6 6 6 6 7 7 7 8 8 8 8 9 9 9 9 8 8 7 7 7 7 7 7 7 7 7 7 7 8 8 8 8 9 9 9 9 10 10 11 11 11 12 12 13 13 13 14 14 15 15 16 17 17 18 18 19 19 20 20 21 22 23 23 24 24 24 25 26 27 27 28 29 30 30 31 32 33 35 37 39 40 41 43 45 46 48 51 53 54 56 57 59 61 60 61 62 63 64 66 68 69 70 70 69 69 68 68 67 66 65 63 62 61 50 39 32 31 30 29 27 25 22 18 13 11 8 5 2 0 0 0 -5 -6 -7 -7 -15 -13 -14 -15 -16 -17 -17 -17 -16 -15 -16 -15 -15 -15 -15 -14 -14 -15 -15 -15 -15 -15 -15 -15 -15 -13 -14 -12 -13 -13 -11 -9 -6 -1 2 2 2 3 3 4 5 5 6 7 7 8 8 9 9 10 11 11 12 13 13 14 14 15 15 16 16 17 17 17 17 17 17 17 17 17 17 17 17 17 18 18 18 18 18 18 18 18 16 17 19 17 16 15 15 15 15 15 15 15 15 15 15 15 15 15 14 15 15 15 15 15 15 15 15 15 14 14 13 11 10 9 9 9 7 6 5 5 5 5 5 5 5 5 5 5 5 4 4 4 4 4 4 4 4 4 4 4 4 4 4 4 4 4 3 3 3 3 3 3 2 2 2 2 1 0 0 0 0 0 0 0 0 0 0 0 0 0 0 0 0 0 0 0 0 0 0 0 0 0 0 0 -3 -5 -5 -4 -3 0 0 0 0 0 0 0 0 0 0 0 0 0 0 0 0 0 0 0 0 0 0 0 0 0 0 0 0 0 0 0 0 -5 -8 -8 -10 -7 -7 -6 -1 -1 -1 0 0 0 0 0 -1 -1 -2 -2 -1 0 0 0 0 0 0 0 0 0 0 0 0 0 0 0 0 0 0 0 0 0 0 0 0 0 0 0 0 0 0 0 0 0 0 0 0 -1 -2 -2 0 0 0 0 0 0 0 0 0 0 0 0 0 0 0 0 0 0 0 0 0 0 0 0 0 0 -7
0 0 0 0 0 0 0 0 0 0 1 1 1 2 2 2 2 3 3 4 4 5 5 5 5 6 6 6 7 7 7 8 8 8 8 9 9 9 9 9 9 9 8 8 8 8 8 7 8 8 7 8 8 8 8 9 9 9 9 10 10 11 11 12 12 12 12 13 14 14 14 15 15 16 16 17 18 18 19 19 20 20 21 21 22 23 23 24 25 25 25 26 27 27 28 29 30 31 32 33 34 35 37 40 41 43 45 46 48 49 51 54 56 58 60 60 61 61 61 61 62 63 65 67 69 71 71 71 71 71 70 70 70 69 67 64 62 61 48 37 30 30 30 28 26 23 21 17 13 11 8 5 3 0 0 0 0 -1 -5 -7 -11 -12 -14 -15 -16 -17 -17 -17 -16 -16 -15 -15 -15 -15 -15 -15 -15 -15 -15 -15 -15 -15 -15 -15 -15 -14 -13 -13 -13 -13 -10 -9 -4 -2 2 2 2 3 4 4 5 5 6 7 7 8 8 9 9 10 11 12 12 12 13 14 14 15 15 15 15 15 16 16 16 16 16 16 16 16 16 16 16 16 16 17 17 17 17 17 17 17 16 17 19 16 16 14 14 14 15 15 15 15 15 15 15 15 15 15 14 14 14 14 14 15 15 15 15 15 14 13 13 11 9 9 9 8 6 5 5 5 4 4 4 4 4 4 4 4 4 4 4 3 3 3 3 3 4 4 4 4 4 4 3 3 3 3 3 3 3 3 3 2 2 2 2 1 1 0 0 0 0 0 0 0 0 0 0 0 0 0 0 0 0 0 0 0 0 0 0 0 0 0 0 0 0 0 0 -4 -6 -3 -4 -2 0 0 0 0 0 0 0 0 0 0 0 0 0 0 0 0 0 0 0 0 0 0 -1 -3 -7 -5 -7 -6 0 0 -9 -10 -10 -9 -8 -4 -2 -1 -1 -1 0 0 0 0 -1 -1 -2 -1 -1 0 0 0 0 0 0 0 0 0 0 0 0 0 0 0 0 0 0 0 0 0 0 0 0 0 0 0 0 0 0 0 0 0 0 0 0 -2 -2 -1 0 0 0 0 0 0 0 0 0 0 0 0 0 0 0 0 0 0 0 0 0 0 0 0 0 0 0
0 0 0 0 0 0 0 0 0 0 1 1 1 2 2 2 3 3 3 4 4 5 5 5 5 6 6 6 7 7 8 8 8 8 9 9 9 9 9 10 9 9 9 8 8 8 8 8 8 8 8 8 9 9 9 9 10 10 10 11 11 12 12 12 13 13 14 14 15 15 16 16 16 17 17 18 19 19 20 20 21 21 22 22 23 23 24 24 25 26 26 27 27 28 29 30 30 31 33 34 36 37 39 42 44 45 47 49 51 52 54 56 59 61 60 61 61 61 61 61 62 64 66 68 70 73 73 74 74 75 75 76 77 74 70 66 62 61 45 33 31 30 29 28 25 23 21 17 13 11 9 6 3 0 0 0 0 -4 -5 -6 -10 -12 -13 -15 -16 -17 -18 -17 -17 -16 -16 -16 -16 -15 -15 -15 -15 -15 -15 -15 -15 -15 -15 -14 -12 -14 -14 -13 -13 -12 -10 -9 -6 -1 2 2 3 3 4 4 5 5 6 7 7 8 8 9 9 10 11 12 12 12 13 14 14 15 15 15 15 15 15 15 15 15 15 15 15 15 15 15 15 15 16 16 16 16 16 16 16 16 16 17 19 15 15 14 14 14 14 15 15 15 15 15 15 15 15 15 14 14 14 15 15 15 15 15 15 15 13 13 12 10 9 9 8 8 6 5 5 4 4 4 4 4 4 4 4 4 4 3 3 3 3 3 3 3 3 3 3 4 4 3 3 3 3 3 2 2 2 2 2 2 2 1 1 1 0 0 0 0 0 0 0 0 0 0 0 0 0 0 0 0 0 0 0 0 0 0 0 0 0 0 0 0 0 0 0 0 0 -4 -6 -6 -3 0 0 0 0 0 0 0 0 0 0 0 0 0 0 0 0 0 0 0 0 0 0 -4 -11 -12 -10 -9 -8 -8 -9 -10 -10 -9 -8 -7 -4 -2 -1 -1 -1 0 0 0 -1 -1 -1 0 0 0 0 0 0 0 0 0 0 0 0 0 0 0 0 0 0 0 0 0 0 0 0 0 -2 0 0 0 0 0 0 0 0 0 0 0 0 -2 -1 0 0 0 0 0 0 0 0 0 0 0 0 0 0 0 0 0 0 0 0 0 0 -2 0 0 0 0 0
0 0 0 0 0 0 0 0 0 1 1 1 2 2 2 2 3 3 3 4 4 5 5 5 6 6 6 7 7 7 8 8 8 9 9 9 9 9 10 10 10 9 9 9 9 9 9 9 9 9 9 9 9 10 10 10 11 11 11 12 12 12 13 13 14 14 15 15 16 16 16 17 17 18 19 19 20 20 21 21 22 22 23 23 24 24 25 25 26 26 27 27 28 29 29 30 30 33 34 36 37 40 42 45 46 48 50 52 53 55 57 59 61 61 61 61 61 61 61 61 63 66 68 70 72 74 77 78 80 82 84 87 91 82 73 66 61 52 41 30 30 30 29 27 25 23 20 17 13 11 9 6 4 2 0 0 0 -5 -6 -5 -10 -11 -13 -14 -16 -17 -18 -17 -17 -17 -17 -15 -15 -15 -15 -15 -15 -15 -15 -15 -15 -15 -15 -13 -14 -15 -14 -13 -13 -12 -10 -9 -5 -1 2 2 3 3 4 4 5 5 6 7 7 8 8 9 9 10 11 11 12 12 13 13 14 14 15 15 15 15 15 15 14 14 15 15 15 15 15 15 15 15 15 15 15 16 16 16 16 16 15 15 14 15 14 14 13 14 14 14 15 15 15 15 15 14 15 14 14 14 15 15 15 15 15 15 15 15 13 12 12 10 9 8 8 7 5 5 4 4 3 3 3 3 3 3 3 3 3 3 3 2 2 2 2 2 3 3 3 3 3 3 2 2 2 2 2 2 2 2 2 2 1 1 1 0 0 0 0 0 0 0 0 0 0 0 0 0 0 0 0 0 0 0 0 0 0 0 0 0 0 0 0 0 0 0 0 0 0 0 0 -4 -6 -5 -4 -3 0 0 0 0 0 0 0 0 0 0 0 0 0 0 0 0 0 0 0 -1 -2 -2 -2 -9 -9 -10 -10 -10 -9 -8 -3 -3 -3 -2 -1 -1 -1 0 0 0 0 0 0 0 0 0 0 0 0 0 0 0 0 0 0 0 0 0 0 0 0 0 0 0 0 0 0 0 -1 0 0 0 0 0 0 0 0 0 0 -1 -2 -2 -1 0 0 0 0 0 0 0 0 0 0 0 0 0 0 0 0 0 0 0 0 0 -1 0 0 0 0 0 0
0 0 0 0 0 0 0 0 0 1 1 1 2 2 2 2 3 3 4 4 5 5 5 5 6 6 6 7 7 8 8 8 9 9 9 9 9 10 10 10 11 10 10 9 9 9 9 9 9 9 9 10 10 10 11 11 12 12 12 12 13 13 14 14 15 15 16 16 17 17 18 18 18 19 20 20 21 21 21 22 22 23 23 24 24 25 26 26 27 27 27 28 29 29 30 30 30 34 36 38 40 42 45 47 49 51 52 54 56 57 60 60 61 61 61 61 61 61 61 61 64 66 69 71 74 76 78 81 84 86 90 91 91 91 78 66 61 45 34 31 30 30 29 27 24 22 20 17 13 11 9 7 5 2 0 0 0 -6 -6 -6 -9 -10 -13 -14 -16 -17 -18 -18 -18 -17 -16 -16 -16 -15 -15 -14 -15 -15 -15 -14 -15 -14 -15 -15 -15 -15 -13 -13 -12 -11 -9 -8 -5 -2 2 2 3 3 4 4 5 5 6 7 7 8 8 9 9 10 11 11 12 12 13 13 14 14 14 14 14 14 14 14 14 14 14 14 14 14 14 14 14 14 14 14 15 15 15 15 15 15 15 15 12 14 13 13 13 13 13 14 14 14 15 15 15 14 14 14 14 14 15 15 15 15 15 15 15 14 12 12 12 9 8 8 7 7 5 4 4 3 3 3 3 3 3 3 3 3 3 2 2 2 2 2 2 2 2 2 2 3 3 2 2 2 2 2 2 2 2 2 2 1 1 0 0 0 0 0 0 0 0 0 0 0 0 0 0 0 0 0 0 0 0 0 0 0 0 0 0 0 0 0 0 0 0 0 0 0 0 0 0 0 0 -4 -5 -6 -4 -3 0 0 0 0 0 0 0 0 0 0 0 0 0 0 0 0 -1 -1 -2 -7 -8 -9 -10 -10 -10 -9 -7 -1 0 -2 -2 -2 -1 -1 -1 0 0 0 0 0 0 0 0 0 0 0 0 0 0 0 0 0 0 0 0 0 0 0 0 0 0 0 0 0 0 -2 -1 0 0 0 0 0 0 0 0 0 0 -1 -2 -1 0 0 0 0 0 0 0 0 0 0 0 0 0 0 0 0 0 0 0 0 0 0 0 -2 -1 0 0 0 0
0 0 0 0 0 0 0 0 0 1 1 1 2 2 2 3 3 3 4 4 5 5 5 6 6 6 7 7 7 8 8 9 9 9 9 9 10 10 10 11 11 10 10 10 10 10 10 10 10 10 10 10 11 11 11 12 12 13 13 13 14 14 15 15 16 16 17 17 18 18 19 19 20 20 20 21 22 22 22 23 23 23 24 25 25 26 26 27 27 28 28 29 29 30 30 30 33 35 37 40 42 45 48 50 52 53 55 57 59 60 61 61 61 61 61 61 61 61 61 62 65 67 70 72 75 77 80 82 86 90 91 91 91 91 76 61 53 37 31 30 30 30 28 26 24 22 19 16 14 12 9 7 5 3 1 0 0 -7 -7 -7 -10 -9 -12 -13 -15 -17 -18 -18 -18 -18 -17 -16 -16 -15 -15 -15 -15 -15 -15 -15 -14 -15 -15 -14 -14 -14 -13 -13 -12 -11 -9 -5 -4 2 2 3 3 4 4 5 5 6 6 7 7 8 8 9 9 10 11 12 12 12 12 13 13 14 14 14 14 14 13 13 13 13 14 14 14 14 14 14 14 14 14 14 14 14 14 14 14 15 14 15 19 14 13 13 13 13 13 13 14 14 15 15 15 14 14 14 14 14 15 15 15 15 15 15 14 13 12 11 11 9 8 7 7 6 5 4 3 3 2 2 2 2 2 2 2 2 2 2 2 2 2 2 2 2 2 2 2 2 2 2 2 2 2 2 1 1 1 1 1 1 0 0 0 0 0 0 0 0 0 0 0 0 0 0 0 0 0 0 0 0 0 0 0 0 0 0 0 0 0 0 0 0 0 0 0 0 0 0 0 0 0 0 0 0 -5 -5 -5 -1 0 0 0 0 0 0 0 0 0 0 0 0 0 0 -2 -6 -9 -10 -10 -10 -10 -9 -8 -1 0 0 0 -1 -2 -1 -1 -1 0 0 0 0 0 0 0 0 0 0 0 0 0 0 0 0 0 0 0 0 0 0 0 0 0 0 0 0 0 0 0 0 -2 0 0 0 0 0 0 0 0 0 -1 -2 -2 -1 0 0 0 0 0 0 0 0 0 0 0 0 0 0 0 0 0 0 0 0 0 0 0 0 -2 -1 0 0 0
0 0 0 0 0 0 0 0 0 1 1 2 2 2 2 3 3 3 4 4 5 5 5 6 6 6 7 7 7 8 8 9 9 9 9 10 10 10 11 11 12 11 11 11 10 10 10 10 11 11 11 11 12 12 12 12 13 13 14 14 15 15 16 16 16 17 18 18 19 19 20 20 20 20 21 22 22 23 23 23 24 24 25 26 26 27 27 28 28 29 29 30 30 30 30 30 34 37 39 41 44 47 50 52 55 57 59 61 61 60 61 61 61 61 61 61 61 61 61 62 65 68 70 73 76 79 82 84 88 91 91 91 91 91 76 61 50 35 30 30 30 30 28 26 24 22 19 16 14 12 10 8 5 4 2 0 0 0 -6 -6 -7 -11 -11 -13 -15 -16 -18 -18 -18 -18 -17 -17 -16 -15 -16 -17 -15 -15 -15 -15 -15 -15 -15 -15 -14 -15 -14 -13 -12 -10 -9 -7 -4 2 2 3 3 4 4 5 5 6 6 7 7 8 8 9 9 10 11 11 11 12 12 12 12 13 13 13 13 13 13 13 13 13 13 13 13 13 13 13 13 13 13 13 14 14 14 14 14 14 14 14 12 13 12 13 13 13 13 13 13 14 14 15 15 13 13 13 14 14 14 14 15 15 15 14 14 12 12 11 11 9 7 7 6 6 4 3 3 2 2 2 2 2 2 2 2 2 2 2 1 1 1 1 1 1 2 2 2 2 2 2 1 1 1 1 1 1 1 1 1 0 0 0 0 0 0 0 0 0 0 0 0 0 0 0 0 0 0 0 0 0 0 0 0 0 0 0 0 0 0 0 0 0 0 0 0 0 0 0 0 0 0 0 0 0 0 0 -5 -4 -4 -1 0 0 0 0 0 0 0 0 0 0 0 -3 -9 -9 -10 -10 -10 -9 -7 -1 0 0 0 0 0 -1 -1 -2 -1 0 0 0 0 0 0 0 0 0 0 0 0 0 0 0 0 0 0 0 0 0 0 0 0 0 0 0 0 0 0 0 0 0 -1 -1 0 0 0 0 0 0 0 0 -1 -2 -2 0 0 0 0 0 0 0 0 0 0 0 0 0 0 0 0 0 0 0 0 0 0 0 0 0 0 -2 0 0 0
0 0 0 0 0 0 0 0 1 1 1 2 2 2 2 3 3 4 4 4 5 5 5 6 6 7 7 7 8 8 8 9 9 9 9 10 10 10 11 11 12 12 11 11 11 11 11 11 11 11 12 12 12 12 13 13 14 14 15 15 16 16 16 17 17 18 19 19 20 20 20 21 21 22 22 23 23 24 24 25 25 26 26 27 28 28 29 29 30 30 31 31 31 32 31 30 35 38 41 44 46 50 53 54 56 59 61 60 61 61 61 61 61 61 61 61 61 61 61 62 65 68 71 74 77 80 84 87 90 91 91 91 91 81 74 61 48 34 30 30 30 29 27 26 24 22 19 16 14 12 10 8 6 4 2 0 0 0 -5 -7 -7 -6 -7 -10 -15 -16 -17 -17 -18 -18 -18 -17 -16 -16 -16 -16 -15 -15 -16 -15 -15 -15 -15 -15 -15 -15 -14 -13 -11 -10 -9 -7 -5 2 2 3 3 4 4 4 5 6 6 7 7 8 8 9 9 10 10 11 11 11 12 12 12 12 12 12 12 13 12 12 12 12 13 13 13 13 13 13 13 13 13 13 13 13 13 13 13 13 14 13 12 12 12 12 13 13 13 13 13 14 14 15 14 13 13 13 13 14 14 14 14 14 14 14 14 12 11 11 10 8 7 6 6 5 4 3 2 2 2 2 2 2 2 2 2 2 1 1 1 1 1 1 1 1 1 1 1 1 1 1 1 1 1 1 0 0 0 0 0 0 0 0 0 0 0 0 0 0 0 0 0 0 0 0 0 0 0 0 0 0 0 0 0 0 0 0 0 0 0 0 0 0 0 0 0 0 0 0 0 0 0 0 0 0 0 0 0 0 -2 -3 -5 -2 0 0 0 0 0 0 0 -2 -7 -10 -10 -10 -10 -10 -8 -7 -1 0 0 0 0 0 0 0 -1 -1 0 0 0 0 0 0 0 0 0 0 0 0 0 0 0 0 0 0 0 0 0 0 0 0 0 0 0 0 0 0 0 0 0 0 -1 -1 -1 0 0 0 0 -1 0 -1 -1 -3 -1 0 0 0 0 0 0 0 0 0 0 0 0 0 0 0 0 0 0 0 0 0 0 0 0 0 0 -2 0 0 0
0 0 0 0 0 0 0 0 1 1 1 2 2 2 3 3 3 4 4 5 5 5 6 6 6 7 7 7 8 8 9 9 9 9 10 10 10 11 11 12 12 12 12 12 12 12 12 12 12 12 12 13 13 13 14 14 15 15 16 16 16 17 17 18 18 19 19 20 20 21 21 22 22 23 23 24 24 25 25 26 26 27 27 28 29 29 30 30 31 32 33 33 34 35 34 39 38 41 44 47 49 53 56 57 59 60 61 61 61 61 61 61 61 61 61 61 61 61 61 61 62 66 71 75 79 83 86 90 91 91 91 91 91 81 71 61 45 31 30 30 30 29 27 25 23 22 19 16 14 12 10 9 6 5 2 0 0 0 0 -6 -8 -6 0 -1 -14 -16 -19 -17 -19 -20 -19 -18 -17 -16 -16 -16 -15 -16 -16 -15 -16 -16 -15 -15 -15 -15 -14 -13 -11 -10 -9 -7 -5 2 2 3 3 3 4 4 5 6 6 7 7 8 8 9 9 9 10 10 10 11 11 11 12 12 12 12 12 12 12 12 12 12 12 12 12 12 12 12 12 12 12 12 13 13 13 13 13 13 13 13 12 12 12 12 12 12 13 13 13 13 14 14 14 13 12 12 13 13 13 13 13 13 13 13 13 12 11 10 10 8 7 6 5 5 3 2 2 2 1 1 1 1 1 1 1 1 1 1 1 0 0 0 0 0 1 1 1 1 1 1 0 0 0 0 0 0 0 0 0 0 0 0 0 0 0 0 0 0 0 0 0 0 0 0 0 0 0 0 0 0 0 0 0 0 0 0 0 0 0 0 0 0 0 0 0 0 0 0 0 0 0 0 0 0 0 0 0 0 0 -1 -2 -3 -1 -1 -2 0 0 0 -3 -8 -10 -9 -10 -10 -10 -9 -1 0 0 0 0 0 0 0 0 0 0 0 0 0 0 0 0 0 0 0 0 0 0 0 0 0 0 0 -1 0 0 0 0 0 0 0 0 0 0 0 0 0 0 0 0 0 0 -1 -1 0 0 0 0 0 -1 -2 -2 -2 -1 0 0 0 0 0 0 0 0 0 0 0 0 0 0 0 0 0 0 0 0 0 0 0 0 0 0 -2 -2 0 0
0 0 0 0 0 0 0 0 1 1 1 2 2 2 3 3 3 4 4 5 5 5 6 6 6 7 7 7 8 8 9 9 9 10 10 10 11 11 12 12 12 13 12 12 12 12 12 12 13 13 13 13 14 14 15 15 16 16 16 17 17 18 18 19 20 20 20 21 21 22 22 23 23 23 24 25 25 26 26 27 27 27 28 29 30 30 30 32 33 34 35 36 37 38 38 42 44 46 46 49 51 55 57 59 60 60 60 61 61 61 61 61 61 61 61 61 61 61 61 61 61 64 70 75 80 84 89 91 91 91 91 91 91 81 71 61 45 30 31 30 30 29 27 25 23 22 19 17 15 13 11 9 8 5 4 1 0 0 0 0 -5 0 0 -4 -11 -15 -18 -19 -21 -21 -21 -20 -19 -18 -18 -16 -16 -16 -16 -16 -16 -15 -15 -15 -14 -15 -15 -14 -11 -9 -8 -7 -3 -1 2 2 3 3 4 4 5 5 6 7 7 7 8 8 9 9 9 10 10 10 11 11 11 12 12 12 12 12 12 12 12 12 12 12 12 12 12 12 12 12 12 12 12 12 12 12 12 12 13 12 12 12 11 11 12 12 12 13 13 13 13 13 13 12 12 12 12 13 13 13 13 13 13 13 13 11 10 10 9 7 6 5 5 5 3 2 2 1 1 1 1 1 1 1 1 1 0 0 0 0 0 0 0 0 0 0 0 0 0 0 0 0 0 0 0 0 0 0 0 0 0 0 0 0 0 0 0 0 0 0 0 0 0 0 0 0 0 0 0 0 0 0 0 0 0 0 0 0 0 0 0 0 0 0 0 0 0 0 0 0 0 0 0 0 0 0 0 0 0 0 0 0 -1 -5 -5 -2 -1 -2 -7 -10 -10 -9 -10 -9 -9 -1 0 0 0 0 0 0 0 0 0 0 0 0 0 0 0 0 0 0 0 0 0 0 0 0 0 0 0 0 0 0 0 0 0 0 0 0 0 0 0 0 0 0 0 0 0 0 0 -1 -1 0 0 -1 -1 -1 -2 -2 -1 -2 0 0 0 0 0 0 0 0 0 0 0 0 0 0 0 0 0 0 0 0 0 0 0 0 0 0 0 0 -2 0 0
0 0 0 0 0 0 0 0 1 1 2 2 2 2 3 3 4 4 4 5 5 5 6 6 7 7 7 8 8 9 9 9 9 10 10 11 11 12 12 12 12 13 13 13 13 13 13 13 13 14 14 14 15 15 15 16 16 17 17 17 18 18 19 19 20 20 21 21 22 22 23 23 24 24 25 26 26 27 27 27 28 28 29 30 30 31 32 34 34 36 37 39 40 41 42 45 47 50 51 53 56 57 59 60 61 61 61 61 61 61 61 61 61 61 61 61 61 61 61 61 61 62 69 76 82 87 91 91 91 91 91 91 91 80 70 61 45 30 31 30 30 29 27 25 24 22 20 17 16 14 12 10 9 7 5 2 0 0 0 0 -1 -6 -8 -8 -10 -14 -17 -19 -21 -22 -22 -21 -20 -19 -18 -17 -17 -16 -16 -16 -16 -16 -16 -16 -16 -16 -15 -14 -13 -10 -9 -7 -4 2 2 2 3 3 4 4 5 5 6 6 7 7 7 8 8 9 9 9 9 10 10 10 11 11 11 11 11 11 11 11 11 11 11 11 11 11 12 12 12 12 12 12 12 12 12 12 12 12 12 12 12 12 11 11 11 12 12 12 12 13 13 13 13 12 12 12 12 12 12 12 12 12 12 12 12 11 10 9 9 7 6 5 5 4 2 2 1 1 0 0 0 0 0 0 0 0 0 0 0 0 0 0 0 0 0 0 0 0 0 0 0 0 0 0 0 0 0 0 0 0 0 0 0 0 0 0 0 0 0 0 0 0 0 0 0 0 0 0 0 0 0 0 0 0 0 0 0 0 0 0 0 0 0 0 0 0 0 0 0 0 0 0 0 0 0 0 0 0 0 0 0 0 0 -1 -1 -5 -6 -8 -8 -9 -9 -9 -9 -10 -8 -1 0 0 0 0 0 0 0 0 0 0 0 0 0 0 0 0 0 0 0 0 0 0 0 0 0 0 0 0 0 0 0 0 0 0 0 0 0 0 0 0 0 0 0 0 -1 -1 -1 -1 -1 -1 -1 -2 -2 -2 -2 -1 -1 0 0 0 0 0 0 0 0 0 0 0 0 0 0 0 0 0 0 0 0 0 0 0 0 0 0 0 0 0 -2 0 0
0 0 0 0 0 0 0 0 1 1 2 2 2 3 3 3 4 4 4 5 5 5 6 6 7 7 7 8 8 9 9 9 10 10 10 11 11 12 12 12 13 13 14 13 13 13 13 14 14 14 15 15 15 16 16 17 17 18 18 18 19 19 20 20 21 21 22 22 23 23 23 24 24 25 26 26 27 27 28 28 29 29 30 31 32 32 34 35 36 38 39 41 42 44 45 47 50 52 54 56 60 60 60 60 61 61 61 61 61 61 61 61 61 61 61 61 61 61 61 61 61 61 69 78 85 91 91 91 91 91 91 91 87 78 68 61 42 31 31 31 30 29 27 26 24 23 20 18 17 15 14 12 10 9 7 4 2 1 0 0 0 0 -6 -7 -6 -7 -14 -18 -21 -22 -23 -23 -21 -20 -19 -18 -18 -17 -17 -17 -16 -16 -15 -16 -16 -16 -16 -15 -13 -11 -8 -6 -4 -1 2 2 3 3 3 4 5 5 5 6 6 7 7 7 8 8 9 9 9 9 10 10 10 10 10 11 11 11 11 11 11 11 11 11 11 11 11 11 11 11 11 11 12 12 12 12 12 12 12 12 12 11 11 11 11 11 12 12 12 12 13 13 12 12 11 11 12 12 12 12 12 12 12 12 12 10 9 9 9 6 5 5 4 4 2 1 1 0 0 0 0 0 0 0 0 0 0 0 0 0 0 0 0 0 0 0 0 0 0 0 0 0 0 0 0 0 0 0 0 0 0 0 0 0 0 0 0 0 0 0 0 0 0 0 0 0 0 0 0 0 0 0 0 0 0 0 0 0 0 0 0 0 0 0 0 0 0 0 0 0 0 0 0 0 0 0 0 0 0 0 0 0 0 0 -1 -1 -7 -11 -10 -10 -9 -9 -9 -8 -2 0 0 0 0 0 0 0 0 0 0 0 0 0 0 0 0 0 0 0 0 0 0 0 0 0 0 0 0 0 0 0 0 0 0 0 0 0 0 0 0 0 0 0 -1 -2 -2 -2 -2 -2 -2 -3 -2 -2 -2 -1 -1 -1 0 0 0 0 0 0 0 0 0 0 0 0 0 0 0 0 0 0 0 0 0 0 0 0 0 0 0 0 0 0 0 0 0
0 0 0 0 0 0 0 0 1 1 2 2 2 3 3 3 4 4 4 5 5 6 6 6 7 7 8 8 9 9 9 9 10 10 11 11 11 12 12 13 13 13 14 14 14 14 14 15 15 15 15 16 16 16 16 17 18 18 19 19 20 20 20 21 21 22 23 23 23 24 24 25 25 26 27 27 27 28 28 29 29 30 31 32 33 34 35 37 38 40 42 44 46 48 49 51 53 55 58 60 61 61 61 61 61 61 61 61 61 61 61 61 61 61 61 61 61 61 61 61 61 61 72 80 87 91 91 91 91 91 91 91 80 71 61 47 31 31 31 31 30 29 27 26 25 23 21 20 18 17 15 13 12 10 8 5 4 2 1 0 0 0 0 0 0 -3 -9 -16 -21 -23 -24 -24 -23 -22 -20 -20 -19 -19 -19 -18 -17 -17 -16 -17 -17 -15 -17 -15 -12 -11 -9 -6 -4 -1 2 2 2 3 3 4 4 5 5 5 6 6 7 7 7 8 8 8 9 9 9 9 9 10 10 10 10 10 10 10 10 10 10 11 11 11 11 11 11 11 11 11 11 11 11 11 11 12 12 12 12 11 10 10 10 11 11 11 12 12 12 12 12 11 11 11 11 11 12 12 12 12 12 12 11 10 9 8 8 6 5 4 4 3 2 1 0 0 0 0 0 0 0 0 0 0 0 0 0 0 0 0 0 0 0 0 0 0 0 0 0 0 0 0 0 0 0 0 0 0 0 0 0 0 0 0 0 0 0 0 0 0 0 0 0 0 0 0 0 0 0 0 0 0 0 0 0 0 0 0 0 0 0 0 0 0 0 0 0 0 0 0 0 0 0 0 0 0 0 0 0 0 0 0 0 -1 -3 -9 -13 -12 -10 -12 -11 -9 0 0 0 0 0 0 0 0 0 0 0 0 0 0 0 0 0 0 0 0 0 0 0 0 0 0 0 0 0 0 0 0 0 0 0 0 0 0 0 -2 -3 -3 -2 -3 -3 -3 -3 -3 -2 -2 -2 -2 -2 -1 -1 -1 0 0 0 0 0 0 0 0 0 0 0 0 0 0 0 0 0 0 0 0 0 0 0 0 0 0 0 0 0 0 0 -1 0 0 0
0 0 0 0 0 0 0 1 1 1 2 2 2 3 3 3 4 4 5 5 5 6 6 6 7 7 8 8 9 9 9 10 10 10 11 11 11 12 12 13 13 13 14 14 15 15 15 15 15 16 16 16 16 17 17 18 19 19 20 20 20 21 21 21 22 23 23 23 24 24 25 25 26 27 27 28 28 29 29 30 30 31 32 33 34 35 36 38 40 41 43 46 48 51 52 54 56 59 61 61 62 62 61 61 61 61 61 61 61 61 61 61 61 61 61 61 61 61 61 61 61 71 78 88 91 91 91 91 91 91 91 86 77 68 61 42 31 31 31 31 30 29 28 27 26 25 23 22 20 19 17 15 14 12 10 7 5 4 2 1 0 0 0 0 0 0 -1 -10 -17 -21 -23 -24 -23 -23 -22 -21 -20 -19 -19 -19 -19 -18 -18 -17 -16 -16 -17 -16 -14 -12 -9 -6 -5 -2 2 2 2 2 3 3 4 5 5 5 6 6 6 7 7 7 8 8 8 9 9 9 9 9 9 9 9 10 10 10 10 10 10 10 10 10 10 10 10 10 10 11 11 11 11 11 11 11 11 12 12 11 10 10 10 10 11 11 11 12 12 12 12 11 10 10 11 11 11 11 11 11 11 11 11 9 9 8 8 5 5 4 3 3 1 0 0 0 0 0 0 0 0 0 0 0 0 0 0 0 0 0 0 0 0 0 0 0 0 0 0 0 0 0 0 0 0 0 0 0 0 0 0 0 0 0 0 0 0 0 0 0 0 0 0 0 0 0 0 0 0 0 0 0 0 0 0 0 0 0 0 0 0 0 0 0 0 0 0 0 0 0 0 0 0 0 0 0 0 0 0 0 0 0 0 0 -1 -6 -12 -10 -13 -10 -12 -9 0 0 0 0 0 0 0 0 0 0 0 0 0 0 0 0 0 0 0 0 0 0 0 0 0 0 0 0 0 0 -1 0 0 0 0 -1 -1 -3 -3 -3 -4 -3 -3 -2 -3 -2 -2 -2 -2 -1 -1 0 -1 0 0 0 0 0 0 0 0 0 0 0 0 0 -1 0 0 0 0 0 0 0 0 0 0 0 0 0 0 0 0 -1 -1 -1 -1 -1 -1 0 0
0 0 0 0 0 0 0 1 1 1 2 2 2 3 3 4 4 4 5 5 6 6 6 7 7 7 8 8 9 9 9 10 10 11 11 11 12 12 12 13 13 14 14 14 15 15 15 15 16 16 16 17 17 17 18 19 19 20 20 20 21 21 21 22 23 23 23 24 24 25 25 26 26 27 27 28 28 29 30 30 30 31 33 34 36 36 38 40 41 43 45 48 51 53 55 56 59 61 62 62 62 62 62 62 61 61 61 61 61 61 61 61 61 61 61 61 61 61 61 61 61 72 83 91 91 91 91 91 91 87 82 76 67 61 47 30 32 31 31 31 30 30 29 28 28 27 25 24 22 20 19 17 16 14 11 9 7 6 5 3 2 1 0 0 0 0 0 0 -13 -18 -21 -23 -24 -23 -23 -22 -21 -21 -20 -19 -19 -19 -19 -18 -17 -17 -16 -17 -15 -13 -10 -6 -5 -2 -1 1 2 2 3 3 4 4 5 5 5 5 6 6 7 7 7 7 8 8 8 8 9 9 9 9 9 9 9 9 9 9 9 10 10 10 10 10 10 10 10 10 10 10 10 11 11 11 11 12 12 11 10 10 10 10 10 11 11 11 11 11 11 10 10 10 10 10 11 11 11 11 11 11 10 9 8 7 7 5 4 3 3 2 1 0 0 0 0 0 0 0 0 0 0 0 0 0 0 0 0 0 0 0 0 0 0 0 0 0 0 0 0 0 0 0 0 0 0 0 0 0 0 0 0 0 0 0 0 0 0 0 0 0 0 0 0 0 0 0 0 0 0 0 0 0 0 0 0 0 0 0 0 0 0 0 0 0 0 0 0 0 0 0 0 0 0 0 0 0 0 0 0 0 0 0 -1 -1 -9 -9 -12 -10 -13 -9 0 0 0 0 0 0 0 0 0 0 0 0 0 0 0 0 0 0 0 0 0 0 0 0 0 0 0 0 0 0 -1 0 0 0 -3 -4 -4 -3 -1 -2 -2 0 -1 -1 0 0 0 -2 -1 -1 -1 -1 0 0 0 0 0 0 0 0 0 0 0 0 0 0 -1 0 0 0 0 0 0 0 0 0 0 0 0 0 0 0 0 0 0 -1 -1 0 0 -1 0
0 0 0 0 0 0 0 1 1 2 2 2 2 3 3 4 4 4 5 5 6 6 6 7 7 7 8 8 9 9 9 10 10 11 11 11 12 12 13 13 13 14 14 15 15 15 15 16 16 16 17 17 17 18 18 19 20 20 20 21 21 22 22 23 23 24 24 24 25 25 26 26 27 27 28 28 29 29 30 30 30 31 33 35 37 38 40 41 43 45 47 50 52 54 56 58 61 62 62 63 63 62 62 62 62 61 61 61 61 61 61 61 61 61 61 61 61 61 61 61 61 74 88 91 91 91 91 91 85 80 73 64 58 49 40 30 31 31 31 31 30 30 30 30 30 30 28 26 24 22 20 19 17 15 13 11 9 8 6 5 4 2 1 0 0 0 0 -3 -10 -16 -19 -22 -24 -24 -23 -23 -22 -21 -21 -20 -20 -20 -19 -19 -18 -17 -17 -17 -16 -14 -11 -7 -5 -3 -1 1 2 2 2 3 4 4 4 5 5 5 5 6 6 7 7 7 7 8 8 8 8 9 9 9 9 9 9 9 9 9 9 9 9 9 9 9 9 9 9 10 10 10 10 10 10 10 10 14 19 10 9 9 9 9 10 10 10 11 11 11 11 10 9 9 10 10 10 10 10 10 10 10 10 9 8 7 7 5 4 3 2 2 0 0 0 0 0 0 0 0 0 0 0 0 0 0 0 0 0 0 0 0 0 0 0 0 0 0 0 0 0 0 0 0 0 0 0 0 0 0 0 0 0 0 0 0 0 0 0 0 0 0 0 0 0 0 0 0 0 0 0 0 0 0 0 0 0 0 0 0 0 0 0 0 0 0 0 -4 0 0 0 0 0 0 0 0 0 0 0 0 0 0 0 -1 -1 -2 -2 -9 -10 -10 -9 -8 -2 0 0 0 0 0 0 0 0 0 0 0 0 0 0 0 0 0 0 0 0 0 0 0 0 0 0 0 0 -1 -2 -1 -3 -4 -3 -3 -1 0 0 0 0 0 0 0 0 0 0 0 0 -1 0 0 0 0 0 0 0 0 0 0 0 0 0 0 0 -1 0 0 0 0 0 0 0 0 0 0 0 0 0 0 0 0 0 0 0 0 0 0 0 0 -1
0 0 0 0 0 0 0 1 1 2 2 2 3 3 3 4 4 4 5 5 6 6 6 7 7 8 8 9 9 9 10 10 10 11 11 12 12 12 13 13 13 14 14 15 15 15 15 15 16 16 17 17 18 18 19 19 20 20 21 21 21 22 22 23 23 24 24 25 25 26 26 26 27 27 28 28 29 29 30 30 30 32 34 37 38 40 41 43 45 47 48 51 54 56 57 59 61 62 63 64 63 63 63 62 62 62 62 61 61 61 61 61 61 61 61 61 61 61 61 61 61 76 91 91 91 91 91 91 84 76 68 61 50 41 30 32 31 31 31 31 30 30 30 30 30 30 30 29 26 24 22 20 19 17 15 13 12 10 9 7 5 4 3 1 0 0 0 0 0 -13 -18 -20 -22 -23 -23 -23 -22 -22 -22 -21 -21 -21 -20 -20 -19 -18 -17 -17 -16 -15 -13 -9 -5 -3 -1 1 2 2 2 3 3 4 4 4 5 5 5 5 6 6 6 6 7 7 7 8 8 8 8 8 8 8 8 9 9 9 9 9 9 9 9 9 9 9 9 9 9 9 10 10 10 10 10 14 19 10 9 9 9 9 9 10 10 10 11 11 10 10 9 9 9 10 10 10 10 10 10 10 9 8 7 6 6 4 3 2 2 2 0 0 0 0 0 0 0 0 0 0 0 0 0 0 0 0 0 0 0 0 0 0 0 0 0 0 0 0 0 0 0 0 0 0 0 0 0 0 0 0 0 0 0 0 0 0 0 0 0 0 0 0 0 0 0 0 0 0 0 0 0 0 0 0 0 0 0 0 0 0 0 0 0 0 -5 -5 -3 0 0 0 0 0 0 0 0 0 0 0 0 0 0 -1 -1 -1 -2 -7 -10 -10 -9 -10 -9 -1 0 0 0 0 0 0 0 0 0 0 0 0 0 0 0 0 0 0 0 0 0 0 0 0 0 0 0 -1 -2 -2 -4 -4 -2 0 0 0 0 0 0 0 0 0 0 0 0 0 0 -1 0 0 0 0 0 0 0 0 0 0 0 0 0 0 0 -1 0 0 0 0 0 0 0 0 0 0 0 0 0 0 0 0 0 0 0 0 0 0 0 0 0
0 0 0 0 0 0 0 0 1 2 2 2 3 3 3 4 4 5 5 5 6 6 7 7 7 8 8 9 9 9 10 10 10 11 11 12 12 12 13 13 14 14 14 15 15 16 16 16 16 17 17 18 18 19 19 20 20 21 21 22 22 22 23 23 24 24 25 25 26 26 26 27 27 28 28 28 29 29 30 30 30 33 36 38 40 41 43 45 46 48 50 52 55 57 59 61 62 64 64 65 64 64 63 63 63 62 62 62 61 61 61 61 61 61 61 61 61 61 61 61 61 76 91 91 91 91 91 91 83 74 66 61 46 34 31 31 31 31 30 30 30 30 30 30 30 30 30 30 28 26 24 23 21 20 17 15 13 12 10 9 7 5 4 2 0 0 0 0 0 -5 -17 -19 -20 -22 -23 -23 -23 -23 -22 -22 -22 -22 -22 -21 -20 -19 -18 -18 -16 -16 -14 -11 -7 -4 -2 1 1 2 2 2 3 3 4 4 4 5 5 5 5 6 6 6 6 7 7 7 7 7 7 7 8 8 8 8 8 8 8 8 8 8 8 9 9 9 9 9 9 9 9 9 9 9 9 14 19 10 9 9 9 9 9 9 9 10 10 10 10 9 9 9 9 9 9 9 9 9 9 9 9 8 7 6 6 4 3 2 2 1 0 0 0 0 0 0 0 0 0 0 0 0 0 0 0 0 0 0 0 0 0 0 0 0 0 0 0 0 0 0 0 0 0 0 0 0 0 0 0 0 0 0 0 0 0 0 0 0 0 0 0 0 0 0 0 0 0 0 0 0 0 0 0 0 0 0 0 0 0 0 0 0 0 0 0 0 -5 -4 0 0 0 0 0 0 0 0 0 0 0 0 0 -1 -1 0 -1 -2 -8 -9 -9 -9 -10 -9 -1 0 0 0 0 0 0 -1 -1 -1 -1 0 0 0 0 0 0 -1 -1 0 0 0 0 0 0 0 0 -1 -2 -3 -4 -2 -1 0 0 0 0 0 0 0 0 0 0 0 0 -2 -1 -1 0 0 0 0 0 0 0 0 0 0 0 0 0 0 0 -1 0 0 0 0 0 0 0 0 0 0 0 0 0 0 0 0 0 0 0 0 0 0 0 0 0
0 0 0 0 0 0 0 0 1 2 2 2 3 3 3 4 4 5 5 5 6 6 7 7 7 8 8 9 9 9 10 10 11 11 11 12 12 13 13 13 14 14 15 15 15 16 16 16 16 17 18 18 18 19 20 20 20 21 21 22 22 23 23 24 24 24 25 25 26 26 27 27 27 28 28 29 29 29 30 30 30 35 38 39 41 43 45 46 48 50 52 55 57 59 60 61 64 65 65 65 65 65 64 64 64 63 62 62 61 61 61 61 61 61 61 61 61 61 61 61 61 75 91 91 91 91 91 91 80 70 61 50 41 30 30 31 31 30 30 30 30 30 30 30 30 30 30 29 28 27 26 24 23 22 19 17 16 14 12 11 9 7 5 3 1 0 0 0 0 -1 -13 -17 -19 -21 -22 -23 -23 -23 -23 -23 -23 -23 -23 -22 -21 -20 -20 -19 -18 -17 -15 -13 -9 -5 -3 -2 1 2 2 2 3 3 3 4 4 4 4 5 5 5 6 6 6 6 6 7 7 7 7 7 7 7 7 7 7 8 8 8 8 8 8 8 8 8 8 9 9 9 9 9 9 9 9 14 19 9 8 8 8 8 9 9 9 9 10 10 9 9 8 8 9 9 9 9 9 9 9 9 9 7 6 5 5 3 2 2 1 1 0 0 0 0 0 0 0 0 0 0 0 0 0 0 0 0 0 0 0 0 0 0 0 0 0 0 0 0 0 0 0 0 0 0 0 0 0 0 0 0 0 0 0 0 0 0 0 0 0 0 0 0 0 0 0 0 0 0 0 0 0 0 0 0 0 0 0 -3 0 0 0 0 0 0 0 0 0 -5 -3 -1 0 0 0 0 0 0 0 0 0 0 0 0 0 0 0 0 -1 -8 -9 -9 -10 -10 -8 -2 -1 0 0 -1 -2 -2 -2 -2 -2 -1 0 0 -1 0 0 -1 0 0 0 0 0 0 0 0 -1 -2 -2 -3 -2 -1 0 0 0 0 0 0 0 0 0 0 0 0 0 -1 -1 0 0 0 0 0 0 0 0 0 0 0 0 0 0 0 0 -2 0 0 0 0 0 0 0 0 0 0 0 0 0 0 0 0 0 0 0 0 0 0 0 0 0
0 0 0 0 0 0 0 0 1 2 2 2 3 3 3 4 4 5 5 5 6 6 7 7 7 8 8 9 9 9 10 10 11 11 11 12 12 13 13 14 14 14 15 15 16 16 16 16 17 17 18 19 19 20 20 21 21 22 22 22 23 23 23 24 25 25 25 26 26 26 27 27 28 28 28 29 29 30 30 30 30 36 39 41 42 44 46 48 49 51 54 56 58 61 60 62 65 66 66 66 66 66 66 66 66 65 64 62 61 61 61 61 61 61 61 61 61 61 61 61 61 69 77 86 91 91 91 85 75 64 56 42 30 31 30 30 30 30 30 30 30 30 30 30 30 30 30 29 28 27 27 26 25 24 22 20 18 16 14 12 11 9 7 5 2 0 0 0 0 0 -1 -12 -17 -19 -21 -22 -23 -23 -23 -23 -24 -24 -24 -23 -22 -22 -21 -20 -19 -18 -16 -14 -11 -6 -4 -3 -1 1 2 2 2 3 3 3 4 4 4 4 5 5 5 5 5 5 6 6 6 6 6 6 6 7 7 7 7 7 7 7 7 7 7 7 8 8 8 8 8 8 8 9 9 9 9 14 19 9 8 8 8 8 8 8 9 9 9 9 9 8 8 8 8 8 9 9 9 9 9 9 8 7 6 5 5 3 2 1 1 0 0 0 0 0 0 0 0 0 0 0 0 0 0 0 0 0 0 0 0 0 0 0 0 0 0 0 0 0 0 0 0 0 0 0 0 0 0 0 0 0 0 0 0 0 0 0 0 0 0 0 0 0 0 0 0 0 0 0 0 0 0 0 0 0 0 0 -4 0 0 0 0 0 0 0 0 0 0 0 -4 -5 -4 0 0 0 0 0 0 0 0 0 0 0 0 0 0 0 0 0 -9 -9 -10 -10 -10 -1 0 0 0 -1 -2 -3 -3 -2 -1 0 0 0 -1 0 0 -1 0 0 0 0 0 0 0 0 -1 -3 -3 -3 -2 -1 0 0 0 0 0 0 0 0 0 0 0 0 0 -1 -1 -1 0 0 0 0 0 0 0 0 0 0 0 0 0 0 0 0 -1 0 0 0 0 0 0 0 0 0 0 0 0 0 0 0 0 0 0 0 0 0 0 0 0
0 0 0 0 0 0 0 0 1 2 2 2 3 3 4 4 4 5 5 6 6 6 7 7 7 8 8 9 9 9 10 10 11 11 11 12 12 13 13 14 14 14 15 15 16 16 16 16 17 18 18 19 19 20 21 21 22 22 23 23 23 23 24 25 25 25 26 26 27 27 27 28 28 29 29 29 30 30 30 30 35 37 40 42 44 45 47 48 50 52 55 57 59 61 61 63 66 67 67 67 67 67 67 67 67 66 65 64 62 61 61 61 61 61 61 61 61 61 61 61 61 61 68 72 81 91 91 73 66 61 44 30 32 30 30 30 30 30 30 30 30 30 30 30 30 30 30 30 30 29 29 29 29 26 24 22 20 19 17 15 13 11 8 5 3 2 0 0 0 0 0 0 -15 -18 -20 -21 -22 -23 -23 -23 -24 -24 -24 -24 -23 -23 -23 -22 -21 -20 -18 -16 -13 -9 -5 -3 -3 -1 1 2 2 2 3 3 3 4 4 4 4 5 5 5 5 5 5 5 6 6 6 6 6 6 6 6 6 6 7 7 7 7 7 7 7 7 7 8 8 8 8 8 8 8 8 14 19 9 7 7 7 7 8 8 8 9 9 9 9 8 7 7 8 8 8 8 8 8 8 8 8 6 5 5 5 2 2 1 0 0 0 0 0 0 0 0 0 0 0 0 0 0 0 0 0 0 0 0 0 0 0 0 0 0 0 0 0 0 0 0 0 0 0 0 0 0 0 0 0 0 0 0 0 0 0 0 0 0 0 0 0 0 0 0 0 0 0 0 0 0 0 0 0 0 0 0 0 0 0 0 0 0 0 0 0 0 0 0 0 0 -3 -2 0 0 0 0 0 0 0 0 0 0 0 0 0 0 0 0 -8 -10 -10 -10 -10 -7 0 0 0 0 0 -2 -4 -2 -1 0 0 0 -2 0 0 0 0 0 0 0 0 0 0 0 0 -2 -3 -3 -1 0 -1 0 0 0 0 0 0 0 0 0 0 0 0 -1 -1 0 0 0 0 0 0 0 0 0 0 0 0 0 0 0 0 -1 -1 0 0 0 0 0 -1 -1 -1 0 0 0 0 0 0 0 0 0 0 0 0 0 0 0 0
0 0 0 0 0 0 0 1 1 2 2 2 3 3 4 4 4 5 5 6 6 6 7 7 8 8 8 9 9 10 10 10 11 11 12 12 12 13 13 14 14 15 15 16 16 16 16 17 17 18 19 19 20 20 21 22 23 23 23 23 24 24 24 25 26 26 26 27 27 27 28 28 29 29 29 29 30 30 30 33 36 39 41 43 45 46 48 50 51 53 55 58 59 61 61 64 68 68 69 69 70 70 71 72 72 70 68 65 61 61 61 61 61 61 61 61 61 61 61 61 61 61 61 61 66 67 67 60 55 47 36 30 30 30 30 30 30 30 30 30 30 30 30 30 30 30 30 30 30 30 30 30 30 30 28 26 23 21 19 17 15 13 10 7 5 3 2 0 0 0 0 0 -10 -16 -19 -20 -21 -22 -23 -23 -24 -24 -25 -25 -25 -24 -24 -23 -23 -21 -20 -18 -15 -12 -6 -4 -3 -2 -1 2 2 2 2 3 3 3 3 4 4 4 4 4 5 5 5 5 5 5 5 5 5 5 6 6 6 6 6 6 6 6 6 6 7 7 7 7 7 7 7 8 8 8 8 13 19 8 7 7 7 7 7 7 8 8 8 8 8 7 7 7 7 7 8 8 8 8 8 8 8 6 5 4 4 2 1 0 0 0 0 0 0 0 0 0 0 0 0 0 0 0 0 0 0 0 0 0 0 0 0 0 0 0 0 0 0 0 0 0 0 0 0 0 0 0 0 0 0 0 0 0 0 0 0 0 0 0 0 0 0 0 0 0 0 0 0 0 0 0 0 0 0 0 0 0 -5 0 0 0 0 0 0 0 0 0 0 0 0 0 0 -4 -3 0 0 0 0 0 0 0 0 0 0 0 0 0 0 0 0 -9 -10 -10 -9 -9 -2 0 0 0 0 -1 -4 -2 -1 0 0 0 -2 -1 0 0 0 0 0 0 0 0 0 0 -1 -3 -3 -3 -1 -1 -1 0 0 0 0 0 0 0 0 0 0 0 0 -2 -2 0 0 0 0 0 0 0 0 0 0 0 0 0 0 0 0 -1 -2 0 0 0 0 0 0 -1 -1 0 0 0 0 0 0 0 0 0 0 0 0 0 0 0 -1
0 0 0 0 0 0 0 1 1 2 2 2 3 3 4 4 4 5 5 6 6 6 7 7 8 8 8 9 9 10 10 11 11 11 12 12 13 13 14 14 14 15 15 16 16 17 17 17 18 18 19 19 20 20 21 22 23 23 24 24 24 25 25 26 26 27 27 27 28 28 28 29 29 30 30 30 30 30 32 34 37 40 43 44 46 48 49 51 53 54 57 59 60 61 61 65 69 70 71 73 75 77 78 81 81 78 72 68 63 61 61 61 61 61 61 61 61 61 61 61 61 61 61 61 61 61 59 54 47 38 30 31 30 30 30 30 30 30 30 30 30 30 30 30 30 30 30 30 30 30 30 30 30 30 30 29 26 24 22 20 17 15 12 8 6 4 2 1 0 0 0 0 -1 -12 -17 -19 -21 -22 -22 -23 -24 -24 -25 -25 -25 -25 -25 -25 -24 -23 -22 -21 -18 -14 -10 -5 -3 -3 -2 2 2 2 2 2 3 3 3 3 4 4 4 4 4 4 5 5 5 5 5 5 5 5 5 5 5 5 6 6 6 6 6 6 6 6 6 7 7 7 7 7 7 7 7 13 19 7 6 6 6 6 6 7 7 8 8 8 8 7 6 6 7 7 7 7 7 7 7 7 7 5 5 4 4 2 1 0 0 0 0 0 0 0 0 0 0 0 0 0 0 0 0 0 0 0 0 0 0 0 0 0 0 0 0 0 0 0 0 0 0 0 0 0 0 0 0 0 0 0 0 0 0 0 0 0 0 0 0 0 0 0 0 0 0 0 0 0 0 0 0 0 0 0 0 -5 -5 0 0 0 0 0 0 0 0 -6 0 0 0 0 0 0 -10 -3 0 0 0 0 0 0 0 0 0 0 0 0 0 0 0 0 -8 -9 -10 -10 -9 -5 -1 0 0 -1 -3 -3 -1 -1 0 -1 -1 0 0 0 0 0 0 0 0 0 0 0 -1 -3 -4 -3 -1 -1 -1 0 0 0 0 0 0 0 0 0 0 0 0 -1 -1 0 0 0 0 0 0 0 0 0 0 0 0 0 0 -1 -1 -2 -1 0 0 0 0 0 0 0 -1 -1 0 0 0 0 0 0 0 0 0 0 0 0 0 -2 -3
0 0 0 0 0 0 0 1 2 2 2 2 3 3 4 4 4 5 5 6 6 6 7 7 8 8 9 9 9 10 10 11 11 12 12 12 13 13 14 14 15 15 16 16 16 17 17 17 18 19 19 20 20 21 21 22 23 23 24 25 26 26 26 27 27 27 28 28 29 29 29 30 30 30 30 30 30 32 34 37 38 41 44 46 48 49 51 53 55 56 59 61 61 62 65 67 71 74 76 80 83 86 89 91 91 88 78 73 69 67 66 66 66 66 66 66 67 66 64 64 64 65 65 64 61 61 58 49 43 36 30 30 30 30 30 30 30 30 30 30 30 30 30 30 30 30 30 30 30 30 30 30 30 30 30 30 28 26 23 21 19 17 13 10 8 6 4 2 1 0 0 0 0 -8 -14 -18 -20 -21 -22 -23 -23 -24 -24 -25 -25 -26 -26 -26 -26 -25 -24 -23 -20 -18 -13 -6 -4 -5 -2 -1 2 2 2 2 2 2 2 3 3 3 3 3 4 4 4 4 4 4 4 4 5 5 5 5 5 5 5 5 5 6 6 6 6 6 6 6 6 6 6 7 7 7 7 13 19 7 6 6 6 6 6 6 7 7 7 7 7 6 6 6 6 6 7 7 7 7 7 7 7 5 4 3 3 1 0 0 0 0 0 0 0 0 0 0 0 0 0 0 0 0 0 0 0 0 0 0 0 0 0 0 0 0 0 0 0 0 0 0 0 0 0 0 0 0 0 0 0 0 0 0 0 0 0 0 0 0 0 0 0 0 0 0 0 0 0 0 0 0 0 0 0 0 -5 -5 0 0 0 0 0 0 0 0 -5 -6 -3 0 0 0 0 0 0 -3 -2 0 0 0 0 0 0 0 0 0 0 0 0 0 0 0 -7 -9 -9 -10 -10 -9 -7 -2 -1 -1 -2 -4 -1 0 -1 -2 -1 -1 0 0 0 0 0 0 0 0 0 0 -1 -3 -4 -3 -1 -1 -1 0 0 0 0 0 0 0 0 0 0 0 0 -2 -1 0 0 0 0 0 0 0 0 0 0 0 0 0 0 -1 -1 -3 0 0 0 0 0 0 0 0 -2 -2 -1 0 0 0 -1 -1 0 0 0 0 0 0 0 -2 -5
0 0 0 0 0 0 1 1 2 2 2 3 3 3 4 4 4 5 5 6 6 7 7 7 8 8 9 9 10 10 10 11 11 12 12 13 13 14 14 14 15 15 16 16 17 17 17 18 18 19 19 20 20 21 22 23 23 24 24 25 26 26 27 27 28 29 29 30 30 30 30 31 31 31 31 31 33 34 37 39 41 43 46 48 50 52 53 54 56 58 60 63 66 67 70 73 74 77 79 83 87 91 90 91 91 85 81 77 73 72 72 71 71 71 71 72 72 73 73 73 75 77 78 78 77 66 57 45 38 30 31 30 30 30 30 30 30 30 30 30 30 30 30 30 30 30 30 30 30 30 30 30 30 30 30 30 28 27 25 23 20 18 15 12 10 8 6 4 2 0 0 0 0 0 0 -15 -19 -21 -22 -23 -23 -23 -24 -25 -26 -26 -27 -27 -27 -26 -25 -25 -23 -22 -18 -7 -5 -7 -7 -2 -1 2 2 2 2 2 2 2 3 3 3 3 3 3 3 4 4 4 4 4 4 4 4 4 5 5 5 5 5 5 5 5 5 5 5 6 6 6 6 6 6 6 6 13 19 6 5 5 5 5 5 6 6 7 7 7 7 6 5 5 6 6 6 6 6 6 6 6 6 5 4 3 3 1 0 0 0 0 0 0 0 0 0 0 0 0 0 0 0 0 0 0 0 0 0 0 0 0 0 0 0 0 0 0 0 0 0 0 0 0 0 0 0 0 0 0 0 0 0 0 0 0 0 0 0 0 0 0 0 0 0 0 0 0 0 0 0 0 -3 -2 -6 -5 -6 0 0 0 0 0 0 0 -4 -5 -5 0 0 0 0 0 0 0 0 -3 -3 0 0 0 0 0 0 0 0 0 0 0 0 0 0 -1 -2 -9 -9 -9 -10 -9 -8 -1 -1 0 -1 -3 -2 0 -1 -2 -2 -1 -1 0 0 0 0 0 0 0 0 0 -2 -4 -3 -1 0 -1 -1 -1 0 0 0 0 0 0 0 0 0 0 -3 -2 0 0 0 0 0 0 0 0 0 0 0 0 0 -1 -1 -2 -3 0 0 0 0 0 0 0 0 0 -1 -2 -2 -1 0 0 0 0 0 0 0 0 0 0 -2 -4 -5
0 0 0 0 0 0 1 1 2 2 2 3 3 3 4 4 5 5 5 6 6 7 7 7 8 8 9 9 10 10 11 11 11 12 12 13 13 14 14 15 15 16 16 16 17 18 18 18 19 19 20 20 21 22 22 23 23 24 25 25 26 26 27 28 29 30 30 30 30 30 31 32 32 33 33 34 35 37 39 41 44 46 48 50 52 54 55 57 59 62 64 69 71 73 75 77 78 80 83 85 88 91 91 91 91 86 83 80 78 77 77 77 77 77 77 77 79 79 81 79 82 85 86 91 91 77 57 44 35 30 30 30 30 30 30 30 30 30 30 30 30 30 30 30 30 30 30 30 30 30 30 30 30 30 30 29 29 27 26 24 22 20 17 14 12 10 8 6 4 2 1 0 0 0 0 -1 -15 -20 -21 -23 -23 -23 -23 -24 -25 -26 -27 -28 -28 -27 -27 -27 -26 -26 -24 -18 -6 -6 -8 -4 -1 0 1 2 2 2 2 2 2 2 2 2 2 3 3 3 3 3 3 3 3 4 4 4 4 4 4 5 5 5 5 5 5 5 5 5 5 5 5 6 6 6 6 12 19 6 5 5 5 5 5 5 6 6 6 6 6 5 5 5 5 5 6 6 6 6 6 6 6 4 3 2 2 0 0 0 0 0 0 0 0 0 0 0 0 0 0 0 0 0 0 0 0 0 0 0 0 0 0 0 0 0 0 0 0 0 0 0 0 0 0 0 0 0 0 0 0 0 0 0 0 0 0 0 0 0 0 0 0 0 0 0 0 0 0 0 0 0 -5 -5 -7 -6 -5 0 0 0 0 0 0 -5 -4 -3 0 0 0 0 0 0 0 0 0 -6 -4 0 0 0 0 0 0 0 0 0 0 0 0 -1 0 -6 -8 -11 -13 -13 -13 -9 -9 -2 -2 -1 0 -3 -3 -2 -1 -2 -2 -2 -1 0 0 0 0 0 0 0 0 -1 -4 -4 -2 -1 -1 -1 -1 -1 -1 0 0 0 0 0 0 0 -2 -2 -2 -1 0 0 0 0 0 0 0 0 0 0 0 0 -2 -1 -1 0 0 0 0 0 0 0 0 0 0 0 0 -2 -3 -3 -2 -1 -3 0 0 0 0 0 0 0 -3 -4 -4
0 0 0 0 0 0 1 1 2 2 2 3 3 3 4 4 5 5 5 6 6 7 7 8 8 8 9 9 10 10 11 11 12 12 12 13 13 14 14 15 15 16 16 16 17 18 18 18 19 20 20 20 21 22 23 23 24 24 25 25 26 27 27 28 29 30 30 30 30 30 32 33 34 34 35 36 38 39 41 43 46 48 50 52 53 55 57 59 61 66 71 74 77 79 80 81 82 83 85 87 89 91 91 91 91 88 86 84 84 83 82 81 82 82 82 83 85 86 88 87 89 91 91 91 91 76 54 41 30 31 30 30 30 30 30 30 30 30 30 30 30 30 30 30 30 30 30 30 30 30 30 30 30 30 30 30 29 28 28 26 24 22 19 16 13 12 9 8 5 4 2 0 0 0 0 0 -12 -17 -22 -23 -24 -23 -23 -23 -25 -26 -28 -29 -29 -29 -28 -30 -29 -27 -26 -22 -7 -4 -7 -5 -5 -2 -1 1 1 2 2 2 2 2 2 2 2 2 2 2 3 3 3 3 3 3 3 3 3 4 4 4 4 4 4 4 4 5 5 5 5 5 5 5 5 5 5 12 19 5 5 5 5 5 5 5 5 6 6 6 6 5 5 5 5 5 5 5 5 5 5 5 5 4 3 2 2 0 0 0 0 0 0 0 0 0 0 0 0 0 0 0 0 0 0 0 0 0 0 0 0 0 0 0 0 0 0 0 0 0 0 0 0 0 0 0 0 0 0 0 0 0 0 0 0 0 0 0 0 0 0 0 0 0 0 0 0 0 0 0 0 0 0 0 -5 -9 -5 0 0 0 0 0 -6 -5 0 0 0 0 0 0 0 0 0 0 0 -8 -5 0 0 0 0 0 0 0 0 0 0 0 -6 -7 -9 -7 -8 -2 -9 -13 -10 -10 -10 -8 -5 -2 -1 -1 -2 -3 -3 -2 -3 -2 -1 0 0 0 0 0 0 0 0 -2 -4 -3 -2 -1 -1 -1 -1 -1 -1 0 0 0 0 0 0 -2 -2 -2 -1 0 0 0 0 0 0 0 0 0 0 0 0 -2 -1 -1 -1 0 0 0 0 0 0 0 0 0 0 0 0 -1 -3 -6 -3 -4 0 0 0 0 0 0 0 0 -4 -4 -2
0 0 0 0 0 0 1 1 2 2 2 3 3 3 4 4 5 5 6 6 6 7 7 8 8 9 9 10 10 11 11 11 12 12 12 13 14 14 15 15 16 16 16 17 17 18 18 19 19 20 20 21 21 22 23 23 24 24 25 26 26 27 27 28 29 30 30 30 30 30 32 34 35 36 37 38 40 42 43 45 48 50 52 54 55 57 59 61 65 70 77 80 83 85 85 85 86 86 87 89 90 91 91 91 91 91 90 90 90 88 87 87 87 85 86 86 88 89 91 91 91 91 91 91 91 68 50 40 30 30 30 30 30 30 30 30 30 30 30 30 30 30 30 30 30 30 30 30 30 30 30 30 30 30 30 30 30 30 30 28 25 22 19 17 15 13 11 9 7 5 3 1 0 0 0 0 0 -11 -19 -25 -27 -25 -24 -23 -24 -25 -27 -28 -29 -29 -29 -29 -29 -28 -28 -26 -18 -9 -6 -4 -3 -3 -2 -1 1 1 1 1 1 1 2 2 2 2 2 2 2 2 2 3 3 3 3 3 3 3 3 4 4 4 4 4 4 4 4 4 5 5 5 5 5 5 5 12 19 5 4 4 4 4 4 5 5 5 6 6 5 5 4 4 4 5 5 5 5 5 5 5 5 3 2 2 1 0 0 0 0 0 0 0 0 0 0 0 0 0 0 0 0 0 0 0 0 0 0 0 0 0 0 0 0 0 0 0 0 0 0 0 0 0 0 0 0 0 0 0 0 0 0 0 0 0 0 0 0 0 0 0 0 0 0 0 0 0 0 0 0 -2 -2 0 0 -8 -6 -5 0 0 -5 -5 -5 0 0 0 0 -3 -2 -1 -1 0 0 0 0 -3 -3 0 0 0 0 0 0 0 0 0 -6 -7 -7 -8 -3 -5 -2 -1 -3 -6 -9 -10 -9 -9 -8 -1 0 0 -2 -2 -3 -3 -4 -4 -1 0 0 0 0 0 0 -1 -1 -3 -4 -3 -2 -1 -1 -1 -1 -1 -1 0 0 0 0 0 -2 -2 -2 0 0 0 0 0 0 0 0 0 0 0 0 0 -4 -1 -1 -1 0 0 0 0 0 0 0 0 0 0 0 0 0 0 -5 -12 -4 0 0 0 0 0 0 0 0 -3 -4 -3 -2
0 0 0 0 0 0 0 1 2 2 2 3 3 3 4 4 5 5 6 6 7 7 7 8 8 9 9 10 10 11 11 12 12 12 13 13 14 14 15 15 16 16 16 17 18 18 19 19 20 20 20 21 22 22 23 24 24 25 25 26 26 27 28 28 29 30 30 30 30 30 34 35 37 38 39 40 41 43 45 47 49 52 54 56 58 59 61 65 69 75 82 86 88 91 89 89 88 88 89 90 91 91 91 91 91 91 95 94 92 91 91 90 90 89 89 91 91 91 91 91 91 91 91 84 74 62 50 40 30 30 30 30 30 30 30 30 30 30 30 30 30 30 30 30 30 30 30 30 30 30 30 30 30 30 30 30 30 30 30 29 27 24 20 19 16 15 12 11 9 7 4 2 1 0 0 0 0 0 -2 -23 -26 -26 -25 -24 -24 -25 -26 -27 -28 -29 -30 -30 -30 -31 -30 -29 -25 -19 -12 -7 -4 -3 -2 -2 -1 1 1 1 1 1 1 1 1 2 2 2 2 2 2 2 2 2 2 2 3 3 3 3 3 3 3 3 3 4 4 4 4 4 4 4 4 4 4 11 19 5 4 4 4 4 4 4 5 5 5 5 5 4 4 4 4 4 5 5 5 5 5 5 5 3 2 1 1 0 0 0 0 0 0 0 0 0 0 0 0 0 0 0 0 0 0 0 0 0 0 0 0 0 0 0 0 0 0 0 0 0 0 0 0 0 0 0 0 0 0 0 0 0 0 0 0 0 0 0 0 0 0 0 0 0 0 0 0 0 0 0 0 0 0 -1 0 0 -6 -8 -3 -5 -5 0 0 0 0 0 -3 -4 -3 -2 -2 -2 -1 0 0 -4 -3 -2 0 0 0 0 -2 -1 -6 -7 -7 -3 -1 -6 -5 -3 -1 -3 -1 -2 -8 -10 -9 -9 -9 -6 0 0 -1 -2 -3 -2 -4 -5 -1 0 0 0 0 0 -1 -1 -3 -3 -3 -2 -1 -1 -1 -1 -1 0 0 0 0 0 0 -3 -1 -1 -1 0 0 0 0 0 0 0 0 0 0 0 0 0 -1 -1 -1 -1 0 0 0 0 0 0 0 0 0 0 0 0 0 0 -7 -5 -2 -1 0 0 0 0 0 0 -5 -6 -3 -2 -2
0 0 0 0 0 0 0 1 2 2 2 3 3 4 4 4 5 5 6 6 7 7 8 8 9 9 9 10 10 11 11 12 12 12 13 13 14 15 15 15 16 16 17 17 18 18 19 19 20 20 21 21 22 23 23 24 24 25 25 26 26 27 28 28 29 30 30 30 30 30 34 37 39 40 41 42 44 46 48 49 52 55 56 58 60 62 64 69 73 80 89 91 91 91 91 91 91 91 91 92 93 94 97 99 100 101 101 98 95 94 92 91 91 91 91 91 91 91 91 91 91 91 77 71 61 56 47 39 30 30 30 30 30 30 30 30 30 30 30 30 30 30 30 30 30 30 30 30 30 30 30 30 30 30 30 30 30 30 30 29 27 25 22 20 18 16 14 12 10 9 6 3 2 1 0 0 0 0 0 -8 -17 -24 -25 -24 -24 -24 -24 -25 -27 -28 -30 -30 -30 -31 -31 -31 -28 -25 -18 -15 -10 -8 -4 -3 -3 -2 -1 0 0 0 1 1 1 1 1 1 1 2 2 2 2 2 2 2 2 2 2 3 3 3 3 3 3 3 3 4 4 4 4 4 4 4 4 8 12 4 3 3 3 3 3 4 4 5 5 5 5 4 3 3 3 4 4 4 4 4 4 4 4 3 1 1 0 0 0 0 0 0 0 0 0 0 0 0 0 0 0 0 0 0 0 0 0 0 0 0 0 0 0 0 0 0 0 0 0 0 0 0 0 0 0 0 0 0 0 0 0 0 0 0 0 0 0 0 0 0 0 0 0 0 0 0 0 0 0 0 0 0 0 0 -2 -2 -4 -6 -8 -7 -4 0 0 0 0 0 -4 -4 -2 -2 -3 0 0 -3 -5 -5 -4 -2 -8 -7 -7 -9 -6 -6 -6 -2 -5 -5 -2 -3 -2 0 0 0 0 -1 -2 -8 -10 -9 -10 -9 -6 -1 0 -1 -2 -3 -4 -5 -1 0 0 0 0 0 0 -1 -3 -3 -3 -1 -1 -1 -1 -1 -1 0 0 0 0 0 -1 0 -1 -1 -1 -1 0 0 0 0 0 0 0 0 0 0 0 -2 -1 -1 -1 0 0 0 0 0 0 0 0 0 0 0 0 0 0 0 -1 -1 -1 -1 0 0 0 0 -1 -4 -5 -4 -2 -2 -1
0 0 0 0 0 0 0 0 2 2 2 3 3 4 4 5 5 5 6 6 7 7 8 8 9 9 10 10 11 11 12 12 12 13 13 14 14 15 15 16 16 16 17 17 18 19 19 20 20 21 21 22 22 23 24 24 25 25 26 26 27 27 28 29 29 30 30 30 31 34 35 38 40 41 43 45 46 48 50 52 54 57 59 61 63 65 67 72 77 84 91 91 91 91 91 91 91 91 91 94 96 100 103 108 109 109 107 102 98 96 94 93 92 91 91 91 91 91 91 91 84 74 66 62 59 52 43 37 30 30 30 30 30 30 30 30 30 30 30 30 30 30 30 30 30 30 30 30 30 30 30 30 30 30 30 30 30 30 30 30 28 26 23 21 19 17 15 13 12 10 7 4 3 1 0 0 0 0 0 0 -10 -20 -23 -23 -23 -23 -24 -25 -27 -28 -30 -31 -30 -30 -30 -32 -29 -29 -22 -17 -14 -11 -8 -4 -4 -5 -3 -2 -2 -2 -1 -1 -1 -1 0 1 1 1 1 1 1 1 1 2 2 2 2 2 2 2 2 2 2 3 3 3 3 3 3 4 4 4 4 5 5 4 3 3 3 3 3 3 4 4 4 4 4 3 3 3 3 3 4 4 4 4 4 4 4 3 1 0 0 0 0 0 0 0 0 0 0 0 0 0 0 0 0 0 0 0 0 0 0 0 0 0 0 0 0 0 0 0 0 0 0 0 0 0 0 0 0 0 0 0 0 0 0 0 0 0 0 0 0 0 0 0 0 0 0 0 0 0 0 0 0 0 0 0 0 0 -3 -2 0 0 0 -6 -5 -3 -1 -1 0 0 -4 -4 -3 -3 -5 -6 -5 -8 -9 -9 -8 -9 -9 -8 -4 -3 -2 -4 -3 -2 -2 -2 -1 0 0 0 0 0 0 -2 -2 -7 -9 -11 -10 -10 -8 -2 0 0 -2 -3 -5 -5 -2 0 0 0 0 0 0 0 -4 -4 -1 -1 -1 -1 -1 -1 -1 0 0 0 0 0 -3 0 0 -1 -1 -1 0 0 0 0 0 0 0 0 0 -1 -2 -2 -2 -3 -2 -2 -2 -1 -1 -1 -1 -1 0 0 0 0 0 0 0 -3 -3 -3 0 -1 0 0 0 0 -4 -4 -3 -2 -1 -1 0
0 0 0 0 0 0 0 0 2 2 3 3 3 4 4 5 5 6 6 7 7 8 8 9 9 9 10 10 11 11 12 12 12 13 13 14 14 15 15 16 16 17 17 18 18 19 20 20 20 21 21 22 22 23 24 24 25 25 26 26 27 27 28 29 29 30 30 31 33 35 37 39 42 44 45 47 48 50 52 54 56 59 61 63 66 68 70 74 79 85 89 91 91 91 91 91 91 91 91 96 101 103 108 115 116 113 111 106 101 98 95 93 92 91 91 91 91 91 91 77 71 61 62 59 56 49 41 36 30 30 30 30 30 30 30 30 30 30 30 30 30 30 30 30 30 30 30 30 30 30 30 30 30 30 30 30 30 30 30 30 29 27 24 22 20 18 16 14 12 10 7 5 3 1 0 0 0 0 0 -5 -4 -16 -21 -22 -22 -22 -22 -23 -25 -26 -28 -28 -29 -30 -30 -30 -29 -27 -25 -21 -17 -14 -11 -8 -6 -5 -6 -4 -4 -3 -3 -2 -3 -2 -2 -2 -1 -1 -1 -1 1 1 1 1 1 2 2 2 2 2 2 2 2 2 3 3 3 3 3 3 3 3 3 4 5 3 2 2 2 2 2 3 3 4 4 4 4 3 2 2 2 3 3 3 3 3 3 3 3 2 1 0 0 0 0 0 0 0 0 0 0 0 0 0 0 0 0 0 0 0 0 0 0 0 0 0 0 0 0 0 0 0 0 0 0 0 0 0 0 0 0 0 0 0 0 0 0 0 0 0 0 0 0 0 0 0 0 0 0 0 0 0 0 0 0 0 0 0 0 0 -1 -2 0 0 0 -7 -7 -6 -6 -5 -5 -6 -5 -7 -5 -6 -6 -5 -3 -4 -1 0 0 -1 -1 0 0 0 0 0 0 0 0 0 0 0 0 0 0 0 0 0 -2 -2 -8 -9 -9 -10 -10 -6 -1 0 0 -3 -4 -5 -2 -1 -2 0 0 0 -1 -4 -4 -4 -2 -2 -1 -1 -1 -1 -1 -1 0 0 0 -1 -2 -1 0 -1 -1 -1 0 0 0 0 0 0 -1 -2 -4 -4 -7 -5 -2 -1 -1 -1 -1 -1 0 -1 0 0 0 0 0 0 0 -1 -2 -3 -4 -1 -1 0 0 0 0 0 -5 -5 -3 -1 -1 -2 0
0 0 0 0 0 0 0 2 2 2 3 3 4 4 4 5 5 6 6 7 7 8 8 9 9 10 10 11 11 12 12 12 13 13 14 14 15 15 16 16 16 17 17 18 19 19 20 20 21 21 22 22 23 23 24 25 25 26 26 27 27 28 28 29 30 30 30 32 34 36 38 41 43 45 47 49 50 52 54 55 58 60 61 66 68 71 73 77 80 86 89 90 91 91 91 91 91 91 91 97 103 108 113 119 122 120 116 109 103 99 96 93 91 90 88 87 83 77 72 66 62 62 60 57 53 47 40 35 30 30 30 30 30 30 30 30 30 30 30 30 30 30 30 30 30 30 30 30 30 30 30 30 30 30 30 30 30 30 30 30 30 27 24 22 20 18 16 14 12 10 8 5 3 2 0 0 0 0 0 0 -6 -13 -17 -20 -21 -21 -22 -22 -24 -25 -26 -27 -28 -31 -30 -30 -29 -28 -25 -23 -19 -16 -14 -12 -10 -8 -7 -14 -12 -6 -6 -5 -4 -3 -3 -3 -3 -3 -3 -2 -2 -2 -1 -2 1 1 0 -1 1 1 2 2 2 2 2 2 2 3 3 3 3 3 3 4 5 3 2 2 2 2 2 2 3 3 3 3 3 2 2 2 2 2 3 3 3 3 3 3 3 2 0 0 0 0 0 0 0 0 0 0 0 0 0 0 0 0 0 0 0 0 0 0 0 0 0 0 0 0 0 0 0 0 0 0 0 0 0 0 0 0 0 0 0 0 0 0 0 0 0 0 0 0 0 0 0 0 -2 0 0 0 0 0 0 0 0 0 0 0 0 0 -2 0 0 0 0 0 0 -5 -7 -7 -7 -7 -2 0 -3 -4 0 0 0 0 0 0 0 0 0 0 0 0 0 0 0 0 0 0 0 0 0 0 0 0 0 0 0 -1 -2 -6 -9 -9 -10 -10 -4 -1 0 -1 -4 -5 -3 -1 -1 0 0 0 -3 -5 -4 -2 -1 0 0 0 0 0 0 0 0 0 0 -1 0 -1 -1 -1 -1 -1 -1 0 0 0 -3 -4 -4 -4 -5 -3 -2 -3 -3 -3 -1 0 0 -1 0 0 0 0 0 0 0 0 0 0 -2 -5 -2 0 -1 0 0 0 0 0 -4 -4 -3 -1 -1 -1 -1
0 0 0 0 0 0 0 2 2 2 3 3 4 4 5 5 5 6 7 7 8 8 8 9 9 10 10 11 11 12 12 12 13 13 14 14 15 15 16 16 17 17 18 18 19 20 20 20 21 21 22 22 23 24 24 25 25 26 27 27 27 28 29 30 30 30 31 34 35 37 41 43 45 47 49 51 53 55 56 59 60 62 66 69 72 74 76 79 83 87 89 91 91 91 91 91 91 91 91 97 103 108 112 116 118 122 118 108 103 99 96 91 91 89 85 79 72 67 61 62 61 61 59 55 49 43 38 34 30 30 30 30 30 30 30 30 30 30 30 30 30 30 30 30 30 30 30 30 30 30 30 30 30 30 30 30 30 30 30 30 30 28 25 23 20 19 16 14 12 11 8 5 3 2 0 0 0 0 0 0 -3 -11 -18 -18 -20 -20 -21 -22 -22 -24 -25 -27 -27 -29 -33 -30 -30 -29 -27 -23 -21 -18 -16 -14 -12 -10 -9 -8 -13 -12 -8 -12 -6 -5 -6 -6 -7 -7 -6 -4 -4 -4 -4 -3 -3 -2 -1 -2 -2 1 -2 1 2 2 2 2 2 2 2 2 2 2 2 3 4 2 2 2 2 2 2 2 2 3 3 3 3 2 2 2 2 2 2 2 2 2 2 2 2 1 0 0 0 0 0 0 0 0 0 0 0 0 0 0 0 0 0 0 0 0 0 0 0 0 0 0 0 0 0 0 0 0 0 0 0 0 0 0 0 0 0 0 0 0 0 0 0 0 0 0 0 0 0 0 0 0 0 -3 -3 -2 0 0 0 0 0 0 0 0 -1 -2 0 0 0 0 0 0 0 0 0 0 0 0 0 0 0 0 0 0 0 0 0 0 0 0 0 0 0 0 0 0 0 0 0 0 0 0 0 0 0 0 0 0 0 0 0 -3 -9 -10 -10 -10 -10 -3 -1 -1 -3 -5 -4 -1 -1 0 0 -2 -5 -5 -2 -1 -1 0 0 0 0 0 0 0 0 0 0 0 0 0 -1 -2 -2 -2 -1 -1 -3 -3 -3 -2 -1 -1 -1 -1 -1 -1 -2 -2 -2 -2 -1 -1 -1 -1 0 0 0 0 0 0 0 -2 -4 -3 -1 -1 -1 0 0 0 0 -6 -4 -4 -3 -1 -1 -2 -1
0 0 0 0 0 0 0 2 2 2 3 3 4 4 5 5 6 6 7 7 8 8 9 9 9 10 11 11 11 12 12 12 13 13 14 15 15 16 16 16 17 17 18 19 19 20 20 21 21 22 22 23 23 24 25 25 26 26 27 27 28 28 29 30 30 31 33 35 37 39 42 45 47 49 51 53 55 57 59 62 64 66 70 72 74 77 79 81 85 88 90 91 91 91 91 91 91 91 91 97 102 106 110 112 115 116 112 108 104 100 97 94 91 87 81 74 66 61 62 61 61 61 59 54 47 41 36 33 30 30 30 30 30 30 30 29 29 29 29 30 30 30 30 30 30 30 30 30 30 30 30 30 30 30 30 30 30 30 30 30 30 28 25 23 21 19 16 14 12 9 7 5 3 2 0 0 0 0 0 0 -4 -9 -15 -17 -18 -19 -20 -21 -21 -22 -24 -25 -26 -26 -28 -29 -30 -30 -27 -23 -20 -19 -17 -15 -14 -12 -10 -9 -9 -8 -8 -11 -8 -8 -7 -7 -6 -8 -8 -8 -7 -7 -7 -5 -4 -4 -3 -3 -3 -2 -3 1 1 1 2 2 2 2 2 2 2 2 2 3 4 2 1 1 1 1 1 2 2 2 2 2 2 2 1 1 1 2 2 2 2 2 2 2 2 1 0 0 0 0 0 0 0 0 0 0 0 0 0 0 0 0 0 0 0 0 0 0 0 0 0 0 0 0 0 0 0 0 0 0 0 0 0 0 0 0 0 0 0 0 0 0 0 0 0 0 0 0 0 0 0 0 0 0 0 -3 -2 -2 0 0 0 0 -3 -4 -3 -1 0 0 0 0 0 0 0 0 0 0 0 0 0 0 0 0 0 0 0 0 0 0 0 0 0 0 0 0 0 0 0 0 0 0 0 0 0 0 0 0 0 0 0 0 0 -1 -7 -9 -10 -10 -10 -9 -2 -1 -3 -6 -4 -1 0 0 0 -3 -5 -4 -1 0 0 0 0 0 0 0 0 0 0 0 0 0 0 0 0 -1 -1 -3 -2 -3 -4 -3 -1 0 0 0 -1 -1 -1 -1 -1 -1 -2 -3 -2 -2 -1 -1 -1 -1 0 0 0 0 -3 -3 -5 -1 -1 -1 0 0 0 0 0 -6 -5 -5 -3 -1 -1 -1 -1
0 0 0 0 0 0 1 2 2 3 3 3 4 4 5 5 6 6 7 7 8 8 9 9 9 10 11 11 11 12 12 12 13 13 14 15 15 16 16 16 17 17 18 19 19 20 20 21 21 22 22 23 24 24 25 25 26 27 27 27 28 29 30 30 31 33 35 37 39 41 44 47 49 52 54 56 58 60 62 65 67 70 73 75 78 80 83 86 88 89 91 91 91 91 91 91 91 91 91 96 101 104 106 109 110 111 108 104 102 100 97 94 91 85 79 71 61 62 60 61 61 61 61 52 45 38 33 30 30 30 30 30 30 30 29 28 28 28 28 29 29 29 29 29 29 30 30 29 28 29 29 29 30 30 30 30 30 30 30 30 30 27 25 22 20 18 16 14 12 9 6 4 2 1 0 0 0 0 0 0 -1 -8 -13 -15 -16 -18 -19 -20 -20 -21 -23 -24 -25 -25 -26 -27 -28 -29 -29 -25 -25 -21 -17 -16 -14 -13 -12 -11 -10 -9 -9 -9 -9 -9 -8 -8 -8 -7 -7 -8 -8 -8 -7 -6 -5 -5 -4 -4 -4 -4 -3 -2 -3 1 1 1 1 1 1 2 2 2 1 2 3 2 1 1 1 1 1 1 1 2 2 2 2 1 1 1 1 1 2 2 2 2 2 2 2 1 0 0 0 0 0 0 0 0 0 0 0 0 0 0 0 0 0 0 0 0 0 0 0 0 0 0 0 0 0 0 0 0 0 0 0 0 0 0 0 0 0 0 0 0 0 0 0 0 0 0 0 0 0 0 0 0 0 0 0 0 -3 -2 -3 0 0 -6 -6 -6 -5 -2 0 0 0 0 0 0 0 0 0 0 0 0 0 0 0 0 0 0 0 0 0 0 0 0 0 0 0 0 0 0 0 0 0 0 0 0 0 0 0 0 0 0 0 0 0 0 -1 -9 -10 -10 -10 -9 -2 -1 -2 -6 -2 0 0 0 0 -4 -5 -3 -1 -1 0 0 0 0 0 0 0 0 0 0 0 0 0 0 0 0 -1 -3 -4 -5 -2 -1 -1 0 0 -1 -1 0 0 0 0 0 0 -1 -2 -2 -2 -2 -1 -1 0 -1 -2 -4 -3 -1 -1 -3 -3 -3 -4 0 0 0 0 -5 -5 -5 -4 -1 0 0 0
0 0 0 0 0 0 0 2 2 3 3 3 4 4 5 5 6 6 7 7 8 8 9 9 9 10 10 11 11 12 12 12 13 13 14 15 15 16 16 16 17 17 18 19 19 20 20 21 21 22 22 23 24 24 25 26 26 27 27 28 28 29 30 30 33 34 36 38 41 43 46 49 51 54 56 58 61 62 64 68 71 74 77 79 82 85 88 91 91 91 91 91 91 91 91 91 91 91 91 96 99 101 103 105 106 106 104 101 100 98 96 94 91 85 78 69 61 59 58 58 59 61 54 51 43 35 30 30 30 29 29 29 29 29 28 27 27 27 27 27 28 28 28 27 28 28 28 27 27 27 27 27 29 29 30 30 30 30 30 30 28 25 23 21 19 16 14 12 10 7 5 3 1 0 0 0 0 0 0 0 0 -8 -12 -14 -16 -17 -18 -19 -20 -20 -22 -23 -24 -25 -29 -26 -27 -28 -30 -26 -27 -22 -18 -16 -15 -16 -15 -11 -10 -10 -9 -9 -9 -9 -8 -8 -8 -7 -8 -8 -8 -8 -7 -7 -7 -6 -5 -5 -5 -4 -4 -4 -2 -2 1 1 1 1 1 1 1 1 1 2 3 1 0 0 0 0 0 0 1 1 2 2 1 1 0 0 0 1 1 1 1 1 1 1 1 1 0 0 0 0 0 0 0 0 0 0 0 0 0 0 0 0 0 0 0 0 0 0 0 0 0 0 0 0 0 0 0 0 0 0 0 0 0 0 0 0 0 0 0 0 0 0 0 0 0 0 0 0 0 0 0 0 0 0 0 0 0 0 -4 -1 -1 -5 -6 -4 0 0 0 -2 0 0 0 0 0 0 0 0 0 0 0 0 0 0 0 0 0 0 0 0 0 0 0 0 0 0 0 0 0 0 0 0 0 0 0 0 0 0 0 0 0 0 0 0 -6 -12 -13 -12 -10 -10 -5 -1 -3 -6 -2 0 0 -1 -2 -5 -5 -2 -1 -1 0 0 0 0 0 0 0 0 0 0 0 0 0 0 0 0 0 -2 -2 -2 -1 -2 -1 -1 0 0 0 0 0 0 0 0 0 0 0 -1 -2 -3 -3 -4 -5 -4 -1 0 0 0 0 -5 -3 0 0 0 0 0 0 -7 -5 -3 -2 0 0 0 0
0 0 0 0 0 0 1 2 2 2 3 3 4 4 5 5 6 6 7 7 8 8 8 9 9 10 10 10 11 11 12 12 12 13 13 14 15 15 16 16 17 17 18 19 19 20 20 21 21 22 23 23 24 25 25 26 27 27 28 28 29 30 30 32 34 36 38 40 42 45 48 51 53 55 57 60 62 65 67 71 75 78 80 82 84 87 91 91 91 91 91 91 91 91 91 91 91 91 91 94 96 98 99 100 101 101 100 98 97 96 94 93 91 84 77 69 61 58 55 53 52 51 48 44 38 32 30 29 29 29 28 28 28 28 27 26 26 27 27 27 27 27 27 26 27 27 27 26 26 26 26 26 27 28 29 30 29 29 29 27 25 22 20 19 16 15 12 11 9 6 3 1 0 0 0 0 0 0 0 -1 -3 -7 -11 -13 -14 -15 -17 -18 -19 -19 -20 -22 -23 -24 -24 -23 -25 -32 -33 -30 -27 -24 -19 -17 -15 -14 -12 -10 -10 -10 -10 -10 -10 -7 -7 -10 -10 -9 -10 -10 -10 -6 -6 -7 -8 -8 -8 -8 -8 -6 -5 -6 -4 -4 -2 -1 0 1 1 1 1 1 0 1 2 1 0 0 0 0 0 0 1 1 1 1 1 0 0 0 0 0 1 1 1 1 1 1 1 0 0 0 0 0 0 0 0 0 0 0 0 0 0 0 0 0 0 0 0 0 0 0 0 0 0 0 0 0 0 0 0 0 0 0 0 0 0 0 0 0 0 0 0 0 0 0 0 0 0 0 0 0 0 0 0 0 0 0 0 0 0 0 0 -5 -5 -3 -4 0 0 0 0 0 0 -5 -2 -1 0 0 0 0 0 0 0 0 0 0 0 0 0 0 0 0 0 0 0 0 0 0 0 0 0 0 0 0 0 0 0 0 0 0 0 0 0 0 0 0 0 -10 -13 -13 -11 -10 -7 -2 -4 -5 -2 0 0 0 -1 -6 -5 -1 0 0 0 0 0 0 0 0 0 0 0 0 0 0 0 0 0 0 0 0 -4 -1 -3 -2 -2 -1 0 0 0 0 0 0 0 0 0 0 0 0 -1 0 0 0 0 -1 0 0 0 0 0 0 0 0 0 0 0 0 0 -5 -5 -3 -2 -1 -1 -1 0
0 0 0 0 0 0 1 2 2 2 3 3 4 4 5 5 5 6 6 7 7 8 8 8 9 9 9 10 10 10 11 11 12 12 13 14 14 15 15 16 16 17 17 18 19 20 20 21 21 22 23 23 24 25 25 26 27 27 28 28 29 30 31 33 35 37 39 42 44 46 49 52 55 57 59 61 64 67 70 74 78 81 83 84 87 88 91 91 91 91 91 91 91 91 91 91 91 91 91 92 93 94 95 96 96 96 95 95 94 93 92 89 84 79 74 66 61 55 52 50 47 44 41 37 33 30 29 28 28 28 28 27 27 27 26 25 25 26 26 26 26 26 26 25 25 25 25 24 24 24 24 24 26 26 27 27 27 26 26 25 22 20 18 16 14 12 10 9 6 3 1 0 0 0 0 0 0 0 -2 -2 -5 -8 -10 -12 -14 -15 -16 -17 -18 -19 -20 -20 -22 -23 -22 -23 -29 -26 -27 -31 -31 -23 -20 -18 -16 -15 -12 -11 -14 -10 -10 -9 -9 -6 -6 -8 -8 -8 -9 -6 -10 -6 -5 -5 -5 -5 -7 -7 -8 -7 -8 -8 -5 -4 -4 -3 -3 0 0 0 0 0 0 1 2 0 0 0 0 0 0 0 0 1 1 1 0 0 0 0 0 0 0 0 0 0 0 0 0 0 0 0 0 0 0 0 0 0 0 0 0 0 0 0 0 0 0 0 0 0 0 0 0 0 0 0 0 0 0 0 0 0 0 0 0 0 0 0 0 0 0 0 0 0 0 0 0 0 0 0 0 0 0 0 0 0 0 0 0 0 0 0 0 0 -1 -3 0 0 0 0 0 0 0 0 -5 -2 0 0 0 0 0 0 0 0 0 0 0 0 0 0 0 0 0 0 0 0 0 0 0 0 0 0 0 0 0 0 0 0 0 0 0 0 0 0 0 0 0 -10 -12 -13 -12 -10 -6 -2 -5 -5 -1 -1 0 0 -2 -7 -5 -1 0 0 0 0 0 0 0 0 0 0 0 0 0 0 0 0 0 0 0 -5 -5 -2 -3 -3 -1 -1 0 0 0 0 0 0 0 0 0 0 0 0 0 0 0 0 0 0 0 0 0 0 0 0 0 0 0 0 0 0 -5 -5 -5 -2 -1 -1 -1 -2 -1
0 0 0 0 0 0 1 2 2 2 3 3 3 4 4 5 5 5 6 6 6 7 7 7 8 8 8 9 9 9 10 10 11 11 12 13 13 14 15 15 16 16 17 18 19 20 20 21 21 22 23 23 24 25 26 26 27 27 28 29 29 30 33 35 37 39 41 43 45 48 51 54 56 59 60 62 66 69 72 77 81 84 86 87 89 90 90 91 91 91 91 91 91 91 91 91 91 91 91 91 91 92 92 92 93 92 91 91 91 91 87 84 78 73 68 60 55 52 47 44 40 37 33 32 30 29 28 27 27 27 27 27 27 26 25 24 24 25 25 25 25 25 24 24 24 24 24 23 23 23 23 23 24 24 25 24 24 23 23 22 20 17 15 13 11 9 8 6 4 1 0 0 0 0 0 0 -1 -2 -3 -3 -4 -7 -9 -11 -12 -14 -15 -16 -17 -17 -18 -19 -21 -21 -21 -22 -29 -24 -25 -25 -31 -23 -21 -18 -16 -14 -12 -11 -15 -14 -9 -9 -9 -6 -6 -8 -8 -6 -9 -6 -9 -10 -5 -5 -5 -5 -5 -7 -7 -5 -9 -9 -8 -4 -4 -4 -4 -3 0 0 0 -1 0 1 2 0 0 0 0 0 0 0 0 0 0 0 0 0 0 0 0 0 0 0 0 0 0 0 0 0 0 0 0 0 0 0 0 0 0 0 0 0 0 0 0 0 0 0 0 0 0 0 0 0 0 0 0 0 0 0 0 0 0 0 0 0 0 0 0 0 0 0 0 0 0 0 0 0 0 0 0 0 0 0 0 0 0 0 0 0 0 0 0 0 0 0 -3 -2 0 0 0 0 0 0 -1 -5 0 0 0 0 0 0 0 0 0 0 0 0 0 0 0 0 0 0 0 0 0 0 0 0 0 0 0 0 0 0 0 0 0 0 0 0 0 0 0 0 0 -8 -12 -14 -13 -10 -9 -6 -4 -4 -2 -1 0 0 -4 -6 -4 -1 0 0 0 -1 0 0 0 0 0 0 0 0 0 0 0 0 0 0 -2 -6 -4 -5 -4 -1 0 0 0 0 0 0 0 0 0 0 0 0 0 0 0 0 0 0 0 0 0 0 0 0 0 0 0 0 0 0 0 -5 -6 -5 -5 -2 -1 0 0 -1 -1
0 0 0 0 0 0 1 2 2 2 2 3 3 3 3 4 4 5 5 5 5 6 6 6 6 6 6 7 7 8 8 9 9 10 11 12 12 13 14 15 15 16 17 18 19 19 20 20 21 22 22 23 24 25 26 26 27 27 28 29 30 30 34 36 38 41 43 45 47 51 54 56 58 61 62 65 69 72 77 81 86 90 90 91 91 90 90 90 91 91 91 91 91 91 91 91 91 91 91 91 91 91 91 92 92 88 87 87 86 86 84 80 76 71 66 59 52 47 42 38 34 30 31 30 29 28 27 27 27 26 26 26 26 25 24 23 24 24 24 23 23 23 23 23 23 23 22 22 22 22 21 21 22 22 23 22 21 21 20 19 17 14 12 11 9 7 5 4 2 0 0 0 0 0 0 -1 -2 -2 -3 -3 -4 -7 -9 -11 -11 -13 -14 -15 -16 -17 -17 -18 -20 -21 -21 -22 -29 -23 -24 -24 -24 -21 -27 -20 -17 -15 -13 -11 -14 -9 -9 -9 -8 -9 -6 -6 -8 -5 -8 -7 -8 -10 -5 -5 -5 -5 -5 -5 -5 -5 -8 -9 -9 -7 -4 -5 -4 -4 -2 -2 -3 -2 0 1 1 0 0 0 0 0 0 0 0 0 0 0 0 0 0 0 0 0 0 0 0 0 0 0 0 0 0 0 0 0 0 0 0 0 0 0 0 0 0 0 0 0 0 0 0 0 0 0 0 0 0 0 0 0 0 0 0 0 0 0 0 0 0 0 0 0 0 0 0 0 0 0 0 0 0 0 0 0 0 0 0 0 0 0 0 0 0 0 0 0 0 0 0 -4 -4 -1 0 0 0 0 0 0 -3 -1 -1 0 0 0 0 0 0 0 0 0 0 0 0 0 0 0 0 0 0 0 0 0 0 0 0 0 0 0 0 0 0 0 0 0 0 0 0 0 0 -5 -12 -13 -13 -10 -10 -8 -4 -3 -2 -1 -1 -1 -5 -5 -3 -1 -1 -1 -1 -1 -1 0 0 0 0 0 0 0 0 0 0 0 0 0 -2 -6 -6 -6 -3 0 0 0 0 0 0 0 0 0 0 0 0 0 0 0 0 0 0 0 0 0 0 0 0 0 0 0 0 0 0 0 -1 -5 -5 -5 -5 -1 -1 -1 -1 -1 -1
0 0 0 0 0 0 1 1 1 1 2 2 2 2 2 3 3 3 3 4 4 4 4 4 4 4 3 4 5 6 6 7 8 9 10 11 12 12 13 14 15 15 16 18 18 19 20 20 21 22 22 23 24 25 26 27 27 28 28 29 30 34 36 38 40 42 45 47 49 52 55 57 59 61 62 66 70 74 80 86 91 91 91 91 91 89 89 89 90 90 90 90 91 91 91 91 91 91 91 91 91 91 91 91 87 83 82 81 81 81 78 75 72 69 63 53 47 42 37 32 30 30 30 29 28 27 27 26 26 26 25 25 25 24 23 23 23 23 23 23 23 23 22 22 22 22 21 20 20 20 20 20 20 20 20 19 19 18 17 15 13 12 10 9 7 5 3 2 0 0 0 0 0 0 -2 -3 -2 -3 -3 -3 -4 -6 -7 -9 -10 -11 -12 -14 -15 -16 -16 -17 -18 -20 -22 -22 -24 -24 -24 -24 -23 -21 -19 -19 -18 -16 -16 -15 -15 -11 -14 -9 -9 -7 -7 -6 -8 -5 -8 -5 -5 -9 -5 -5 -5 -5 -5 -5 -5 -5 -5 -5 -9 -9 -9 -6 -6 -4 -3 -1 0 0 0 0 1 0 0 0 0 0 0 0 0 0 0 0 0 0 0 0 0 0 0 0 0 0 0 0 0 0 0 0 0 0 0 0 0 0 0 0 0 0 0 0 0 0 0 0 0 0 0 0 0 0 0 0 0 0 0 0 0 0 0 0 0 0 0 0 0 0 0 0 0 0 0 0 0 0 0 0 0 0 0 0 0 0 0 0 0 0 0 0 0 0 0 0 0 0 -1 -4 0 0 0 0 0 0 0 -4 -1 0 0 0 0 0 0 0 0 0 0 0 0 0 0 0 0 0 0 0 0 0 0 0 0 0 0 0 0 0 0 0 0 0 0 0 0 0 0 0 -12 -13 -13 -12 -10 -9 -5 -3 -2 -1 -2 -3 -5 -4 -2 -1 -1 -1 -1 -1 -1 0 0 0 0 0 0 0 0 0 0 0 0 0 -3 -6 -6 -5 -1 0 0 0 0 0 0 0 0 0 0 0 0 0 0 0 0 0 0 0 0 0 0 0 0 0 0 0 0 0 0 0 -3 -5 -5 -5 -5 -2 -2 -2 -1 -2 -2
0 0 0 0 0 0 0 0 0 1 1 1 1 1 1 1 2 2 2 2 2 2 2 2 2 1 0 1 3 4 5 6 7 8 9 10 11 12 12 13 14 15 16 17 18 18 19 20 21 21 22 23 24 25 26 27 27 28 29 29 30 35 37 39 41 44 46 48 50 54 56 59 61 62 64 68 72 75 81 87 91 91 91 91 91 88 87 88 88 89 89 90 90 91 91 91 91 91 91 91 91 91 90 86 84 80 78 78 77 75 73 71 68 65 58 49 41 35 30 31 30 29 29 28 27 27 26 25 25 25 25 24 24 23 23 22 22 22 22 21 21 21 21 20 20 20 20 19 19 18 18 18 18 18 18 17 16 15 15 12 11 9 8 6 5 3 2 0 0 0 0 0 0 -2 -2 -2 -3 -4 -3 -4 -5 -6 -7 -9 -10 -11 -12 -13 -14 -15 -15 -16 -17 -19 -21 -23 -27 -25 -26 -26 -26 -24 -19 -18 -18 -16 -15 -13 -15 -15 -9 -10 -9 -9 -8 -6 -8 -6 -8 -8 -5 -5 -9 -5 -5 -5 -5 -5 -5 -5 -5 -4 -4 -6 -9 -9 -9 -8 -4 -3 -1 -4 -2 -1 -1 0 0 0 0 0 0 0 0 0 0 0 0 0 0 0 0 0 0 0 0 0 0 0 0 0 0 0 0 0 0 0 0 0 0 0 0 0 0 0 0 0 0 0 0 0 0 0 0 0 0 0 0 0 0 0 0 0 0 0 0 0 0 0 0 0 0 0 0 0 0 0 0 0 0 0 0 0 0 0 -8 -3 -6 0 0 0 0 0 0 0 0 0 0 0 0 0 -4 -3 -1 0 0 0 0 0 0 0 0 0 0 0 0 0 0 0 0 0 0 0 0 0 0 0 0 0 0 0 0 0 0 0 0 0 0 0 0 0 0 0 0 0 0 0 0 -1 -9 -13 -13 -13 -13 -9 -4 -2 -2 -2 -3 -3 -4 -3 -2 -1 -1 -1 -1 -1 0 0 0 0 0 0 0 0 0 0 0 0 0 -1 -5 -6 -6 -4 0 0 0 0 0 0 0 0 0 0 0 0 0 0 0 0 0 0 0 0 0 0 0 0 0 0 0 0 0 -1 -1 -1 -3 -4 -4 -5 -4 -2 -3 -2 -2 -2 -3
0 0 0 0 0 0 0 0 0 0 0 0 0 0 0 1 1 1 1 1 1 1 1 1 0 0 0 0 1 2 3 4 5 6 8 9 10 10 11 12 13 14 15 16 17 18 19 20 20 21 22 23 24 25 26 27 27 28 29 30 32 37 39 41 43 45 47 49 51 55 58 61 61 62 66 69 73 76 82 89 91 91 91 91 91 86 86 87 87 88 88 89 90 90 91 91 91 91 91 91 91 91 86 82 79 74 73 73 72 71 69 68 66 63 55 40 34 31 30 29 29 28 28 27 27 26 25 24 24 24 24 23 23 22 22 21 21 21 21 21 21 20 20 19 19 19 18 18 17 17 16 16 16 15 15 14 13 12 12 10 8 7 6 5 3 2 0 0 0 0 0 -1 -2 -2 -3 -3 -4 -4 -4 -5 -4 -6 -7 -8 -9 -10 -11 -12 -13 -14 -15 -16 -16 -19 -21 -22 -24 -25 -27 -29 -27 -26 -24 -20 -19 -17 -16 -13 -16 -15 -10 -14 -9 -7 -7 -8 -9 -8 -8 -8 -5 -5 -9 -5 -5 -5 -5 -5 -5 -5 -4 -4 -5 -5 -5 -5 -5 -8 -4 -4 -7 -7 -3 -2 -2 -1 -1 0 0 0 0 0 0 0 0 0 0 0 0 0 0 0 0 0 0 0 0 0 0 0 0 0 0 0 0 0 0 0 0 0 0 0 0 0 0 0 0 0 0 0 0 0 0 0 0 0 0 0 0 0 0 0 0 0 0 0 0 0 0 0 0 0 0 0 0 0 0 0 0 0 0 0 0 0 -4 -14 -8 -5 0 0 0 0 0 0 0 0 0 0 0 0 0 -1 -3 0 0 0 0 0 0 0 0 0 0 0 0 0 0 0 0 0 0 0 0 0 0 0 0 0 0 0 0 0 0 0 0 0 0 0 0 0 0 0 0 0 0 0 0 0 -7 -12 -13 -13 -13 -11 -7 -1 -2 -3 -4 -3 -3 -2 -1 -1 -1 -1 -1 -1 -2 -1 0 0 0 0 0 0 0 0 0 0 -1 -3 -4 -7 -6 -1 0 0 0 0 0 0 0 0 0 0 0 0 0 0 0 0 0 0 0 0 0 0 0 0 0 -1 0 0 0 -1 -1 -2 -4 -5 -5 -5 -3 -2 -3 -2 -2 -3 -3
0 0 0 0 0 0 0 0 0 0 0 0 0 0 0 0 0 0 0 0 0 0 0 0 0 0 0 1 1 1 2 2 3 5 6 7 9 9 10 11 12 13 15 16 17 18 19 20 20 21 22 23 24 25 26 27 28 28 29 30 32 38 40 42 44 46 48 51 53 56 59 61 61 63 66 70 73 77 83 91 91 91 91 89 85 84 84 85 86 87 88 89 90 90 91 91 91 91 91 91 91 91 84 79 73 69 68 68 68 67 66 65 63 61 47 30 31 30 29 28 28 27 27 27 26 25 24 24 23 23 23 23 22 21 21 20 20 20 20 20 20 19 19 18 18 18 17 16 16 15 14 14 13 13 13 12 11 10 9 8 6 5 5 3 2 1 0 0 0 0 -1 -2 -2 -3 -3 -3 -4 -5 -5 -5 -7 -6 -6 -8 -9 -10 -11 -12 -12 -13 -14 -15 -15 -17 -21 -22 -24 -26 -27 -28 -27 -27 -26 -22 -19 -17 -16 -14 -15 -14 -10 -14 -10 -8 -8 -7 -8 -9 -8 -8 -5 -6 -8 -9 -5 -5 -5 -5 -5 -5 -4 -4 -5 -4 -4 -4 -7 -8 -7 -10 -8 -8 -6 -1 -1 -2 -2 -1 0 0 0 0 0 0 0 0 0 0 0 0 0 0 0 0 0 0 0 0 0 0 0 0 0 0 0 0 0 0 0 0 0 0 0 0 0 0 0 0 0 0 0 0 0 0 0 0 0 0 0 0 0 0 0 0 0 0 0 0 0 0 0 0 0 0 0 0 0 0 0 0 0 0 0 0 0 -1 -7 0 0 0 0 0 0 0 0 0 0 0 0 0 0 0 -2 0 0 0 0 -2 -3 0 0 0 0 0 0 0 0 0 0 0 0 0 0 0 0 0 0 0 0 1 0 0 0 0 1 1 0 0 0 0 0 0 0 0 0 0 0 0 -2 -13 -13 -14 -14 -13 -9 -2 -2 -4 -4 -3 -2 -1 -1 -2 -1 -1 -1 -1 -2 -1 -1 -1 0 0 0 0 0 0 0 0 -1 -4 -5 -7 -4 -1 0 0 0 0 0 0 0 0 0 0 0 0 0 0 0 0 0 0 0 0 0 0 0 0 0 0 0 0 0 -1 -1 -2 -4 -5 -5 -4 -2 -4 -5 -4 -3 -3 -3
0 0 0 0 0 0 0 0 0 0 0 0 0 0 0 0 0 0 0 0 0 0 0 0 0 0 0 0 0 0 1 1 2 4 5 6 8 9 10 11 12 13 14 16 17 18 19 20 20 21 22 23 25 26 27 27 28 29 30 30 34 39 41 44 46 48 50 52 54 57 59 60 61 63 66 69 72 76 81 86 91 91 85 82 83 83 83 84 85 86 87 88 89 90 91 91 91 91 91 91 91 84 79 74 68 63 65 65 64 64 64 63 62 57 44 30 30 29 28 28 27 27 27 26 25 24 24 23 23 23 23 22 22 21 20 20 20 20 19 19 18 18 17 17 16 16 16 15 14 13 13 12 11 11 10 9 9 8 7 6 5 4 3 2 1 0 0 0 0 -2 -2 -3 -3 -4 -4 -4 -4 -5 -5 -7 -7 -4 -6 -7 -9 -9 -10 -11 -11 -12 -13 -15 -15 -16 -18 -21 -23 -25 -27 -28 -28 -28 -28 -26 -23 -19 -17 -15 -13 -15 -11 -15 -15 -9 -8 -8 -9 -9 -9 -8 -6 -5 -8 -8 -8 -6 -5 -5 -5 -5 -4 -4 -4 -5 -4 -4 -4 -4 -9 -9 -10 -10 -7 -4 -3 -4 0 0 0 0 0 0 0 0 0 0 0 0 0 0 0 0 0 0 0 0 0 0 0 0 0 0 0 0 0 0 0 0 0 0 0 0 0 0 0 0 0 0 0 0 0 0 0 0 0 0 0 0 0 0 0 0 0 0 0 0 0 0 0 0 0 0 0 0 0 0 0 0 0 0 0 0 0 0 0 0 -4 0 0 0 0 0 0 0 0 0 0 0 0 0 0 0 0 -2 0 0 -2 -2 -2 0 0 0 0 0 0 0 0 0 0 0 0 0 0 0 0 0 0 0 1 1 1 1 1 2 3 2 2 1 0 0 0 0 0 0 0 0 0 0 0 -11 -13 -14 -13 -14 -10 -3 -3 -4 -3 -2 -1 -1 -1 -2 -2 -2 -1 -2 -1 -4 -5 -4 -1 -1 -1 -1 0 0 0 0 -2 -5 -6 -6 -1 0 0 0 0 0 0 0 0 0 0 0 0 0 0 0 0 0 0 0 0 0 0 0 0 0 0 0 0 0 -1 -3 -2 -2 -4 -5 -5 -3 -3 -10 -10 -5 -2 -2 -1
0 0 0 0 0 0 0 0 0 0 0 0 0 0 0 0 0 0 0 0 0 0 0 0 0 0 0 0 0 0 0 0 0 2 5 6 7 8 9 10 11 12 14 15 16 17 18 20 20 21 22 24 25 26 27 28 28 29 30 30 35 41 43 46 48 51 53 55 56 58 60 61 61 61 62 66 69 72 76 80 82 80 78 75 77 78 80 81 83 84 85 87 88 90 91 91 91 91 91 91 85 81 75 68 61 62 62 62 62 62 62 61 55 50 39 30 29 28 27 27 27 26 26 25 24 24 23 22 22 22 22 21 21 20 20 19 19 18 18 18 17 17 16 16 15 15 14 13 13 12 11 10 10 9 9 8 7 6 6 5 4 3 2 1 0 0 0 0 -2 -3 -3 -3 -4 -4 -4 -5 -6 -5 -3 -7 -4 -5 -5 -6 -8 -9 -10 -11 -12 -12 -12 -15 -15 -15 -17 -21 -24 -25 -27 -27 -28 -28 -27 -26 -24 -19 -17 -16 -16 -15 -15 -15 -15 -10 -8 -9 -9 -9 -7 -9 -9 -8 -9 -9 -9 -5 -5 -5 -5 -4 -5 -4 -4 -4 -4 -4 -4 -5 -5 -10 -7 -10 -9 -11 -2 -1 0 0 0 0 0 0 0 0 0 0 0 0 0 0 0 0 0 0 0 0 0 0 0 0 0 0 0 0 0 0 0 0 0 0 0 0 0 0 0 0 0 0 0 0 0 0 0 0 0 0 0 0 0 0 0 0 0 0 0 0 0 0 0 0 0 0 0 0 0 0 0 0 0 0 0 0 0 0 0 0 -5 0 0 0 0 0 0 -5 0 0 0 0 0 0 0 0 0 0 -2 -1 -5 -1 -2 0 0 0 0 0 0 0 0 0 0 0 0 0 0 0 0 0 0 1 1 1 2 2 3 4 5 4 3 2 1 0 0 0 0 0 0 0 0 0 0 -10 -13 -14 -14 -13 -13 -4 -4 -3 -2 -1 -1 -1 0 -1 -2 -2 -2 -2 -2 -4 -5 -5 -4 -4 -5 -4 -1 0 0 -1 -3 -5 -6 -5 -1 0 0 0 0 0 0 0 0 0 0 0 0 0 0 0 0 0 0 0 0 0 0 0 0 0 0 0 0 0 -1 -4 -3 -3 -6 -5 -6 -5 -7 -11 -7 -2 0 0 0
0 0 0 0 0 0 0 0 0 0 0 0 0 0 0 0 0 0 0 0 0 0 0 0 0 0 0 0 0 0 0 0 1 2 4 5 7 8 9 10 11 12 14 16 16 18 19 20 21 22 23 24 25 26 27 28 29 30 30 32 37 43 45 48 51 53 55 57 58 59 60 61 61 61 61 61 64 67 70 73 74 72 70 69 71 73 75 77 80 81 82 84 85 87 90 91 91 91 89 85 81 76 72 66 61 59 60 61 61 61 61 57 51 44 34 29 28 27 27 26 26 25 25 24 24 23 23 22 22 21 21 20 20 19 19 18 18 17 17 16 16 16 15 14 14 13 12 12 11 11 10 9 8 8 7 6 6 5 4 3 3 2 1 0 0 0 -1 -2 -3 -3 -3 -3 -3 -4 -4 -5 -5 -6 -3 -7 -3 -8 -5 -6 -7 -8 -9 -10 -11 -12 -11 -12 -13 -15 -16 -19 -22 -24 -26 -27 -27 -27 -27 -26 -24 -21 -17 -16 -16 -15 -16 -16 -15 -13 -9 -9 -8 -9 -9 -9 -9 -9 -9 -9 -9 -8 -5 -5 -5 -5 -4 -4 -4 -4 -4 -4 -4 -9 -8 -5 -6 -5 -10 -11 0 0 0 0 0 0 0 0 0 0 0 0 0 0 0 0 0 0 0 0 0 0 0 0 0 0 0 0 0 0 0 0 0 0 0 0 0 0 0 0 0 0 0 0 0 0 0 0 0 0 0 0 0 0 0 0 0 0 0 0 0 0 0 0 0 0 0 0 0 0 0 0 0 0 0 0 0 0 0 0 0 -5 -3 0 0 0 0 0 -2 0 0 0 0 0 0 0 0 0 0 0 0 -1 -5 -4 -3 -1 -2 -1 0 0 0 0 0 0 0 0 0 0 0 0 0 0 0 0 1 1 2 2 3 4 3 3 3 2 2 1 0 0 0 0 0 0 0 0 0 -6 -12 -13 -13 -13 -13 -6 -4 -2 -1 0 0 0 0 -1 -2 -1 -1 -2 -2 -4 -4 -2 -4 -4 -3 -1 0 0 0 -3 -4 -5 -5 -4 -1 0 0 0 0 0 0 0 0 0 0 0 0 0 0 0 0 0 0 0 0 0 0 0 0 0 0 0 0 -1 -4 -4 -3 -4 -14 -11 -6 -4 -3 -3 -3 0 0 0 0
0 0 0 0 0 0 0 0 0 0 0 0 0 0 0 0 0 0 0 0 0 0 0 0 0 0 0 0 0 0 0 0 2 3 4 5 7 8 9 10 11 13 14 16 17 18 19 20 21 22 23 25 26 27 28 29 30 30 31 36 41 45 48 50 54 56 58 59 60 61 61 61 61 61 61 60 61 63 65 66 66 64 63 63 66 69 73 75 77 78 79 80 81 82 85 87 91 86 83 80 76 72 68 64 59 56 56 56 56 56 53 50 45 37 30 28 27 27 26 26 25 24 24 23 23 23 22 21 21 20 20 20 19 18 18 17 17 16 16 15 15 14 13 13 12 12 11 11 10 9 8 8 7 6 6 5 5 4 3 2 2 1 0 0 0 0 -2 -2 -3 -3 -3 -4 -4 -4 -6 -6 -4 -4 -2 -8 -8 -8 -5 -5 -7 -8 -9 -10 -11 -11 -11 -12 -15 -15 -15 -19 -21 -24 -26 -27 -27 -27 -26 -25 -23 -22 -18 -16 -16 -15 -16 -15 -10 -10 -10 -9 -8 -9 -9 -9 -9 -6 -6 -9 -10 -9 -5 -5 -5 -5 -5 -5 -4 -4 -4 -5 -9 -9 -6 -4 -4 -4 -6 -10 -4 -1 0 0 -6 0 0 0 0 0 0 0 0 0 0 0 0 0 0 0 0 0 0 0 0 0 0 0 0 0 0 0 0 0 0 0 0 0 0 0 0 0 0 0 0 0 0 0 0 0 0 0 0 0 0 0 0 0 0 0 0 0 0 0 0 0 0 0 0 0 0 0 0 0 0 0 0 0 0 0 0 0 -5 -1 -4 -3 -3 -2 0 0 0 0 0 0 0 0 0 0 0 0 0 0 0 -5 -2 -3 -2 -1 -1 -3 -1 0 0 0 0 0 0 0 0 0 0 0 0 0 1 1 2 2 3 4 3 3 2 2 2 1 0 0 0 0 0 0 0 0 0 -6 -12 -12 -13 -13 -13 -11 -4 -1 0 0 0 0 0 -1 -1 -1 -1 -1 -3 -2 -1 -4 -4 -1 0 0 0 0 -2 -3 -4 -4 -5 -3 -1 0 0 0 0 0 0 0 0 0 0 0 0 0 0 0 0 0 0 0 0 0 0 0 0 0 0 -1 -1 -3 -4 -5 -6 -5 -6 -6 -3 -2 -1 0 0 0 0 0 0
0 0 0 0 0 0 0 0 0 0 0 0 0 0 0 0 0 0 0 0 0 0 0 0 0 0 0 0 0 0 0 0 2 4 5 6 7 8 9 10 12 13 15 16 17 18 19 20 21 22 24 26 27 27 29 30 30 30 32 37 43 47 50 53 58 59 60 60 61 61 61 61 61 61 61 59 59 60 61 61 61 60 60 60 61 65 69 71 73 74 74 75 76 77 80 81 81 80 77 74 71 68 65 61 54 52 52 51 50 48 45 41 37 32 29 27 27 26 26 25 24 24 23 23 22 22 21 20 20 20 19 19 18 17 17 16 16 15 15 14 14 13 12 12 11 11 10 9 9 8 7 7 6 5 5 5 4 3 2 1 1 0 0 0 0 -1 -3 -3 -3 -3 -4 -5 -4 -4 -5 -7 -7 -7 -8 -8 -9 -6 -4 -5 -6 -8 -9 -9 -10 -10 -11 -11 -12 -15 -15 -17 -21 -23 -26 -26 -26 -26 -26 -25 -24 -21 -19 -17 -15 -15 -15 -14 -10 -15 -13 -8 -8 -9 -8 -9 -9 -7 -9 -9 -9 -9 -5 -5 -5 -5 -4 -5 -5 -4 -4 -4 -4 -7 -4 -4 -4 -6 -7 -8 -4 -1 -5 -4 -1 0 0 0 0 0 0 0 0 0 0 0 0 0 0 0 0 0 0 0 0 0 0 0 0 0 0 0 0 0 0 0 0 0 0 0 0 0 0 0 0 0 0 0 0 0 0 0 0 0 0 0 0 0 0 0 0 0 0 0 0 0 0 0 0 0 0 0 0 0 0 0 0 0 0 0 0 0 0 -13 -14 -7 0 0 0 0 0 0 0 0 0 0 0 0 0 0 0 0 -5 -5 0 -1 -3 -2 -2 -1 -2 0 0 0 0 0 0 0 0 0 0 0 0 0 0 1 1 2 2 3 3 2 2 2 1 1 0 0 0 0 0 0 0 0 0 -6 -10 -10 -13 -12 -13 -13 -8 -2 0 0 0 -1 -1 -2 -1 -1 -1 -1 -3 -1 -1 -1 -1 -1 0 0 0 -1 -3 -4 -4 -4 -4 -2 -1 -1 0 0 0 0 0 0 0 0 0 0 0 0 0 0 0 0 0 0 0 0 0 0 0 -3 -5 -10 -5 -6 -12 -12 -9 -6 -5 -5 -2 -1 0 0 0 0 0 0 0
0 0 0 0 0 0 0 0 0 0 0 0 0 0 0 0 0 0 0 0 0 0 0 0 0 0 0 0 0 0 0 1 2 4 5 6 7 9 9 11 12 14 15 16 17 19 20 21 22 23 25 26 27 28 30 30 30 30 33 39 44 48 52 56 61 61 61 61 61 61 61 61 61 61 61 58 57 57 58 59 58 58 59 60 61 62 65 67 68 69 69 69 69 71 74 75 75 73 71 69 66 64 61 56 51 48 46 45 43 40 38 34 30 30 28 27 26 25 25 24 24 23 23 22 21 21 20 20 19 19 18 18 17 16 16 15 15 14 14 13 12 12 11 11 10 9 9 9 8 7 6 6 5 5 4 4 3 2 2 1 0 0 0 -1 -2 -3 -3 -3 -3 -4 -5 -4 -4 -8 -4 -4 -7 -7 -2 -2 -6 -4 -4 -5 -6 -7 -8 -9 -10 -10 -10 -10 -11 -14 -15 -17 -21 -23 -27 -26 -25 -25 -25 -24 -23 -21 -21 -18 -15 -14 -15 -15 -15 -15 -14 -8 -9 -9 -9 -10 -10 -9 -7 -10 -9 -9 -7 -5 -5 -5 -4 -5 -4 -4 -4 -4 -4 -4 -4 -4 -3 -7 -7 -4 -5 -5 -1 -1 -1 -1 0 0 0 0 0 0 0 0 0 0 0 0 0 0 0 0 0 0 0 0 0 0 0 0 0 0 0 0 0 0 0 0 0 0 0 0 0 0 0 0 0 0 0 0 0 0 0 0 0 0 0 0 0 0 0 0 0 0 0 0 0 0 0 0 0 0 0 0 0 0 0 0 0 0 0 0 0 -5 -13 -11 -3 0 0 0 0 0 0 0 0 0 0 0 0 -2 -4 -6 -6 -1 0 0 0 -2 -3 -3 0 0 0 0 0 0 0 -1 -7 -4 -1 0 0 0 0 0 1 2 2 3 3 2 2 2 1 0 0 0 0 0 0 0 0 0 0 -7 -10 -10 -13 -12 -13 -12 -10 -1 0 0 0 -1 -1 -2 -1 0 0 0 -3 -1 -1 -1 -1 -1 -1 0 0 -3 -4 -4 -4 -4 -4 -2 -2 -1 -1 -1 0 0 0 0 0 0 0 0 0 0 0 0 0 0 0 0 0 0 0 -1 -2 -9 -11 -8 -13 -12 -10 -8 -7 -9 -6 0 0 2 0 0 0 0 0 0 0
0 0 0 0 0 0 0 0 0 0 0 0 0 0 0 0 0 0 0 0 0 0 0 0 0 0 0 0 0 0 1 1 3 4 5 7 8 9 10 11 12 14 16 17 18 19 20 21 23 23 25 27 28 29 30 30 30 30 34 39 45 48 52 56 61 61 61 61 61 61 61 61 61 61 61 56 55 55 55 56 56 56 57 58 59 60 62 63 64 64 63 63 63 66 68 69 68 67 66 65 62 59 55 51 47 44 41 40 38 35 32 30 30 29 27 26 25 25 24 23 23 23 22 21 21 20 20 19 19 18 18 17 16 16 15 14 14 13 13 12 12 11 10 10 9 9 8 8 7 6 5 5 5 4 3 3 2 2 1 0 0 0 -2 -2 -2 -3 -3 -3 -4 -5 -4 -5 -6 -4 -7 -7 -4 -4 -3 -7 -2 -2 -3 -5 -6 -7 -8 -9 -9 -10 -10 -10 -11 -12 -15 -17 -20 -22 -24 -25 -25 -25 -25 -24 -23 -21 -20 -18 -17 -15 -15 -12 -14 -11 -15 -11 -9 -9 -10 -10 -9 -9 -7 -9 -9 -9 -9 -5 -5 -5 -5 -5 -4 -4 -5 -5 -4 -4 -8 -3 -7 -4 -4 -6 -3 -1 -5 -2 -1 -1 -1 -1 0 0 0 0 0 0 0 0 0 0 0 0 0 0 0 0 0 0 0 0 0 0 0 0 0 0 0 0 0 0 0 0 0 0 0 0 0 0 0 0 0 0 0 0 0 0 0 0 0 0 0 0 0 0 0 0 0 0 0 0 0 0 0 0 0 0 0 0 0 0 0 0 0 -1 -2 0 0 -1 -6 -5 0 0 0 0 0 0 0 0 0 0 -5 -5 -5 -8 -2 -1 -2 0 0 0 0 -2 -3 -1 -1 0 0 -2 -7 -8 -6 -2 0 0 0 0 0 0 0 1 2 3 2 2 2 1 1 0 0 0 0 0 0 0 0 0 0 0 -13 -11 -12 -13 -12 -12 -9 -2 0 -1 -1 -3 -1 -1 -1 0 0 -1 -2 -1 -1 -1 -1 -1 -1 0 -1 -3 -4 -3 -6 -5 -4 -3 -3 -2 -1 -2 -2 -2 -2 -1 -1 0 0 0 0 0 0 0 0 0 0 -1 -1 -2 -4 -5 -7 -11 -16 -14 -11 -8 -8 -6 -4 -4 0 0 0 1 0 0 0 0 0 0 0
0 0 0 0 0 0 0 0 0 0 0 0 0 0 0 0 0 0 0 0 0 0 0 0 0 0 0 0 0 0 1 1 3 5 6 7 8 9 10 12 13 15 16 17 19 20 21 22 23 24 26 28 29 30 30 30 30 30 34 40 45 48 52 56 59 61 61 61 61 61 61 61 61 61 61 55 53 53 53 53 53 54 55 56 57 59 60 61 61 61 61 61 61 61 62 64 63 63 61 61 56 52 48 46 43 40 38 36 34 32 30 29 29 28 27 25 24 24 23 23 22 22 21 20 20 20 19 18 18 17 17 16 15 15 14 14 13 12 12 12 11 10 9 9 9 8 7 7 6 5 5 4 4 3 2 2 1 1 0 0 0 -1 -2 -3 -3 -3 -3 -3 -6 -4 -7 -7 -6 -6 -8 -4 -6 -4 -3 -5 -3 -1 -4 -5 -6 -7 -8 -9 -9 -10 -10 -10 -12 -14 -15 -16 -18 -22 -24 -24 -25 -24 -24 -23 -22 -20 -20 -18 -17 -15 -15 -12 -11 -13 -15 -15 -9 -9 -10 -8 -9 -10 -7 -9 -9 -9 -8 -6 -5 -5 -5 -5 -4 -4 -5 -5 -5 -4 -9 -6 -2 -1 -2 -1 -2 -5 -3 -1 -2 -1 -2 -2 0 0 0 0 0 0 0 0 0 0 0 0 0 0 0 0 0 0 0 0 0 0 0 0 0 0 0 0 0 0 0 0 0 0 0 0 0 0 0 0 0 0 0 0 0 0 0 0 0 0 0 0 0 0 0 0 0 0 0 0 0 0 0 0 0 0 0 0 0 0 0 0 0 0 0 0 0 0 -2 -8 -4 -3 -2 -1 -2 -1 -5 0 -1 -5 -1 -1 0 0 0 -2 -5 -2 0 0 0 0 -4 -1 -5 -5 -7 -8 -5 -5 -4 -3 0 0 0 0 0 0 0 1 2 2 2 2 1 1 1 0 0 0 0 0 0 0 0 0 0 0 -1 -14 -15 -13 -12 -11 -8 -2 -1 -2 -2 -1 0 0 0 0 -1 -2 -2 -1 -2 -1 -1 -1 -1 0 -3 -5 -6 -7 -7 -5 -3 -3 -3 -3 -3 -2 -2 -2 -3 -1 -2 -2 -2 -1 -1 -1 0 0 0 -1 -3 -4 -5 -6 -8 -8 -10 -11 -12 -8 -6 -4 -3 0 0 0 0 0 0 0 0 0 0 0 0 0 0
0 0 0 0 0 0 0 0 0 0 0 0 0 0 0 0 0 0 0 0 0 0 0 0 0 0 0 0 0 1 1 2 3 5 6 7 9 9 11 12 13 15 17 18 19 20 21 23 24 25 27 28 30 30 30 30 30 30 34 40 45 48 51 54 56 59 61 61 61 61 61 61 61 59 53 52 51 50 50 50 51 52 53 54 55 57 59 60 61 61 61 61 61 61 61 61 62 59 56 53 49 46 42 41 38 37 36 34 32 30 30 29 28 27 26 24 24 23 23 22 22 21 20 20 19 19 18 17 17 16 16 15 14 14 13 13 12 12 11 11 10 9 9 8 8 7 7 6 5 5 4 3 3 2 2 1 1 0 0 0 -1 -2 -2 -3 -3 -4 -7 -6 -4 -4 -5 -7 -4 -4 -8 -4 -8 -7 -4 -3 -1 -1 -4 -5 -7 -8 -8 -8 -9 -9 -10 -11 -10 -12 -15 -16 -18 -22 -23 -24 -24 -24 -24 -23 -21 -19 -19 -17 -16 -14 -15 -12 -11 -10 -9 -13 -10 -10 -10 -11 -9 -10 -10 -10 -10 -9 -9 -9 -5 -5 -5 -5 -5 -5 -5 -6 -4 -3 -7 -2 -2 -2 -2 -1 -1 -2 -1 -1 -1 -1 -1 -2 0 0 0 0 0 0 0 0 0 0 0 0 0 0 0 0 0 0 0 0 0 0 0 0 0 0 0 0 0 0 0 0 0 0 0 0 0 0 0 0 0 0 0 0 0 0 0 0 0 0 0 0 0 0 0 0 0 0 0 0 0 0 0 0 0 0 0 0 0 0 0 0 0 0 0 0 0 0 -1 -6 -7 -4 -2 -4 -7 -7 -7 -4 -1 0 0 0 0 0 0 0 0 -5 0 0 -4 -2 -10 -5 -8 -7 -7 -7 -6 -6 -6 -6 -1 0 0 0 0 0 0 1 2 2 2 2 1 1 0 0 0 0 0 0 0 0 0 0 0 0 0 -1 -15 -13 -10 -10 -8 -2 -2 -1 -1 0 0 0 0 -1 -2 -2 -2 -2 -2 -1 -1 -1 -4 -7 -8 -9 -9 -8 -6 -5 -5 -5 -5 -5 -5 -5 -7 -5 -5 -5 -6 -6 -6 -7 -7 -6 -7 -7 -8 -8 -8 -8 -12 -13 -8 -9 -7 -5 -4 -3 0 0 0 0 0 0 0 0 0 0 0 0 0 0 0 0 0
0 0 0 0 0 0 0 0 0 0 0 0 0 0 0 0 0 0 0 0 0 0 0 0 0 0 0 0 0 1 1 2 4 5 6 8 9 10 11 12 14 16 17 19 20 21 22 23 25 26 27 29 30 30 30 30 30 30 34 39 43 46 48 51 54 56 58 61 61 61 61 61 58 56 51 49 48 48 47 48 49 50 51 52 54 55 57 60 61 61 61 61 61 61 61 61 56 53 50 47 43 40 36 35 33 32 32 31 30 30 29 28 27 26 25 24 23 23 22 21 21 20 20 19 18 18 17 17 16 16 15 14 13 13 12 12 12 11 11 10 9 9 8 7 7 6 6 5 5 4 3 2 2 2 1 0 0 0 0 0 -2 -2 -3 -3 -4 -6 -5 -4 -4 -4 -4 -4 -4 -4 -9 -5 -4 -3 -3 -3 -2 -1 -4 -5 -6 -7 -8 -8 -9 -9 -10 -10 -11 -11 -13 -16 -18 -21 -23 -23 -23 -24 -25 -23 -20 -19 -18 -17 -16 -14 -15 -14 -11 -10 -9 -9 -8 -8 -7 -7 -7 -8 -11 -11 -11 -10 -9 -9 -5 -5 -5 -5 -5 -5 -5 -4 -3 -3 -5 -5 -3 -3 -2 -3 -2 -1 -1 -1 -1 -1 -1 0 0 0 0 0 0 0 0 0 0 0 0 0 0 0 0 0 0 0 0 0 0 0 0 0 0 0 0 0 0 0 0 0 0 0 0 0 0 0 0 0 0 0 0 0 0 0 0 0 0 0 0 0 0 0 0 0 0 0 0 0 0 0 0 0 0 0 0 0 0 0 0 0 0 0 0 0 0 0 0 0 0 0 0 0 0 0 0 0 0 0 0 0 0 0 0 0 -1 -4 -2 -5 -4 -7 -10 -10 -10 -5 -5 -6 -7 -7 -5 -5 -4 -2 -1 0 0 0 0 0 1 2 1 1 1 0 0 0 0 0 0 0 0 0 0 0 0 0 0 -1 -18 -14 -10 -10 -9 -5 -2 -1 0 0 0 0 0 -1 -3 -2 -2 -2 -2 -3 -4 -6 -9 -9 -10 -10 -7 -7 -7 -7 -7 -7 -7 -7 -6 -6 -6 -6 -6 -6 -6 -6 -6 -7 -7 -7 -8 -12 -10 -13 -9 -7 -6 -5 -4 0 0 0 0 0 0 0 0 0 0 0 0 0 0 0 0 0 0 0 0 0 0
0 0 0 0 0 0 0 0 0 0 0 0 0 0 0 0 0 0 0 0 0 0 0 0 0 0 0 0 0 1 1 2 4 5 7 8 9 10 12 13 14 16 18 19 20 22 23 24 25 27 29 30 30 30 30 30 30 30 34 38 41 44 45 48 51 53 55 58 59 60 59 56 55 53 48 47 45 45 44 45 46 48 49 50 51 52 56 61 61 61 61 61 61 61 59 57 52 48 44 42 38 34 30 30 30 30 30 30 29 29 28 27 26 25 24 23 22 22 21 20 20 20 19 18 18 17 16 16 15 15 14 13 13 12 12 11 11 10 10 9 9 8 7 7 6 5 5 5 4 3 2 2 1 1 0 0 0 0 0 -1 -2 -2 -3 -4 -6 -5 -4 -4 -4 -4 -4 -4 -5 -7 -9 -5 -4 -3 -3 -2 -2 -2 -3 -5 -6 -7 -8 -8 -9 -9 -10 -10 -10 -11 -14 -16 -18 -20 -22 -23 -23 -22 -23 -22 -20 -19 -18 -17 -16 -16 -15 -14 -11 -11 -14 -8 -8 -8 -8 -7 -7 -7 -7 -7 -7 -6 -5 -5 -5 -5 -5 -5 -5 -5 -5 -4 -2 -6 -6 -5 -5 -4 -2 -4 -3 -3 -1 -1 -1 -1 0 0 0 0 0 0 0 0 0 0 0 0 0 0 0 0 0 0 0 0 0 0 0 0 0 0 0 0 0 0 0 0 0 0 0 0 0 0 0 0 0 0 0 0 0 0 0 0 0 0 0 -2 -1 -1 -1 -3 -3 -3 -3 -2 -3 -3 -2 0 0 0 0 0 0 0 0 0 0 0 0 0 0 0 0 0 0 0 0 0 0 0 0 0 0 0 0 0 0 0 0 -1 0 0 0 0 -4 -1 -4 -9 -7 -9 -6 -5 -4 -4 -4 -8 -5 -3 -4 -4 0 0 0 0 0 0 1 1 1 1 0 0 0 0 0 0 0 0 0 0 0 0 0 0 0 -1 -16 -14 -12 -10 -9 -8 -3 0 0 0 0 0 -1 -3 -2 -3 -3 -4 -6 -7 -9 -9 -10 -9 -8 -8 -8 -8 -7 -7 -7 -7 -7 -7 -7 -6 -6 -6 -7 -6 -6 -6 -7 -6 -1 -5 -6 -4 -4 -3 -4 -3 0 0 0 0 0 0 0 0 0 0 0 0 0 0 0 0 0 0 0 0 0 0 0 0 0
0 0 0 0 0 0 0 0 0 0 0 0 0 0 0 0 0 0 0 0 0 0 0 0 0 0 0 0 0 1 2 3 5 6 7 9 10 11 12 13 15 17 19 20 21 22 23 25 26 28 30 30 30 30 30 30 30 30 35 38 40 41 44 47 49 51 53 55 55 55 54 52 51 49 46 45 43 42 41 41 43 44 45 45 46 46 50 55 61 61 61 61 61 61 55 50 46 43 39 36 32 30 30 30 29 29 29 29 28 27 27 26 25 24 23 22 22 21 20 20 19 19 18 17 17 16 16 15 15 14 13 13 12 12 11 11 10 9 9 8 7 7 6 6 5 5 4 4 3 2 2 1 0 0 0 0 0 0 0 -2 -2 -3 -4 -6 -5 -4 -4 -4 -4 -4 -5 -5 -9 -5 -5 -5 -4 -3 -3 -3 -1 -1 -3 -4 -6 -7 -8 -8 -8 -8 -9 -10 -10 -10 -11 -14 -17 -19 -22 -23 -22 -22 -22 -22 -21 -19 -18 -17 -16 -15 -15 -13 -11 -10 -10 -9 -8 -8 -7 -7 -7 -7 -7 -7 -6 -6 -5 -5 -5 -5 -5 -5 -5 -6 -4 -7 -6 -6 -5 -6 -4 -4 -5 -4 -4 -4 -3 -2 -1 0 0 0 0 0 0 0 0 0 0 0 0 0 -2 -2 -2 0 0 0 0 0 0 0 0 0 0 0 0 0 0 0 0 0 0 0 0 0 0 0 0 0 0 0 0 0 0 0 0 0 0 -2 -4 -3 -4 -4 -3 -3 -12 -9 -10 -9 -6 -4 -3 -4 -5 -5 -4 -4 -4 -4 -3 -4 -3 -3 -6 -6 0 0 0 0 0 0 0 0 0 0 0 0 0 0 0 0 0 0 0 -1 0 0 0 0 0 -1 -5 -6 -8 -7 -5 -1 0 0 0 -4 -5 -4 -4 -3 -4 0 0 0 0 0 0 1 0 0 0 0 0 0 0 0 0 0 0 0 0 0 0 0 -4 -15 -15 -13 -9 -8 -9 -9 -4 -1 0 0 0 -1 -2 -2 -3 -4 -6 -7 -8 -9 -9 -11 -10 -9 -7 -6 -5 -5 -6 -6 -5 -5 -5 -4 -4 -6 -10 -7 -5 -4 -4 -4 -5 -6 -2 -2 0 0 0 0 0 0 0 0 0 0 0 0 0 0 0 0 0 0 0 0 0 0 0 0 0 0 0 -1 -1 -1 -1
